# .PCD v.7 - Point Cloud Data file format
VERSION .7
FIELDS x y z
SIZE 4 4 4
TYPE F F F
COUNT 1 1 1
WIDTH 1879
HEIGHT 1
VIEWPOINT 0 0 0 1 0 0 0
POINTS 1879
DATA ascii
72.6044 -2.4703 -62.6355
23.2399 -50.0300 42.0864
76.6599 -45.1524 -79.6500
56.6037 -82.4872 -52.8932
50.2736 -73.3084 -14.8802
52.9655 -79.2045 -18.6938
60.2178 -92.8785 -54.7591
19.8150 -46.0124 44.4980
68.7567 -10.2462 -39.6244
75.9885 -33.4918 -95.5927
73.6170 -23.6855 -75.9829
65.6438 -4.8632 -49.4052
50.7488 -63.1558 -7.7481
52.9497 -68.1266 -43.3191
34.9408 -11.9300 49.1225
55.9850 -39.2447 -13.2382
55.8991 -99.9199 0.9941
56.5466 -83.9783 -69.8393
59.0910 -97.8239 -23.0455
50.0406 -88.6942 -0.7676
73.3200 -3.9664 -66.6128
28.8596 -32.1588 40.4693
70.7743 -14.9226 -61.8886
55.9612 -102.1048 -9.9542
51.9329 -64.4225 -18.9461
42.7890 -81.5400 25.9956
34.3957 -31.3808 31.9986
58.1220 -125.3876 -48.0393
58.6113 -87.6777 -52.8205
64.8970 -15.5273 -35.1375
52.2161 -64.7664 -33.6825
56.2692 -77.6960 -45.3547
58.4010 -111.7472 -59.0820
38.4116 -60.5203 21.5608
57.1127 -87.2397 -76.0023
72.0654 -33.7821 -55.0391
68.8585 -25.8065 -27.1904
43.9836 -53.0338 -4.0463
39.0097 23.0410 13.0348
48.0806 14.0056 8.2475
26.8078 -88.4960 57.4848
78.9410 -59.1155 -88.9051
75.8338 -13.2662 -88.2840
67.5406 -8.1214 -42.7873
57.5212 -90.0534 -62.7612
40.6571 -72.5931 25.5004
60.7104 -96.5973 -59.4024
59.0029 -118.9672 -29.1887
56.0380 -101.9705 5.3820
34.0961 -84.1324 51.1881
42.5698 19.8610 10.3654
70.4752 -18.7079 -45.7018
26.6202 -26.7505 50.7690
56.2884 -85.2054 -14.4047
43.5051 -26.6734 22.6781
45.9812 -52.9782 -14.0743
34.6289 -95.8239 54.1149
60.6467 -91.1977 -49.4258
49.5144 -59.4904 -28.0806
55.7228 -109.0624 -1.1779
43.7036 -100.6038 40.1380
21.6544 -59.4438 55.6459
41.0312 -61.6806 10.8754
66.5109 -21.1524 -19.9245
24.6450 -88.9805 60.6055
40.4864 -93.1585 35.4149
57.7451 -111.2467 -20.7197
-33.6314 -107.1367 -62.3264
49.0671 -74.4655 12.8202
54.9002 -85.6682 -5.7032
26.2432 -42.1927 31.6971
55.1013 -82.9190 -4.1539
55.0728 -79.9630 -56.6541
59.3602 -94.1090 -61.3622
54.8175 -88.4140 -31.6167
55.9999 -115.2989 -7.3651
67.6339 -50.1292 -45.6428
30.0109 -72.6408 43.8787
45.7400 -51.9065 -12.9155
51.3906 -63.0061 -26.6398
26.5329 -53.5727 39.0181
47.8358 31.6625 -2.9213
52.9819 -79.2417 -19.2885
73.4011 -5.1382 -72.9048
57.0046 -117.8144 -38.6224
47.9716 -87.4275 18.2614
32.9113 -15.7314 52.8917
24.9466 -81.8702 65.2043
41.8743 -99.5740 42.9204
58.2210 -84.1032 -47.9443
79.3350 -59.4631 -87.2882
61.3111 -126.7702 -32.6250
59.3718 -88.8984 -51.3722
59.4347 -100.4280 -32.3721
63.1358 -119.4777 -50.3667
25.3620 6.0646 50.4231
55.2039 -89.4575 -37.7326
46.9407 17.6417 3.4595
52.8891 -94.1846 -9.3584
75.2839 -9.7670 -76.3859
64.2616 13.4970 -51.5899
31.3850 -78.8540 51.7507
21.8346 -55.0896 49.0121
51.2804 -76.0923 -15.3793
30.1200 -59.3659 41.8989
43.4631 -77.2680 17.2911
56.9159 -101.8426 -47.5589
57.1378 -100.6180 -44.1235
57.0623 -94.2623 -32.3798
51.4761 -91.8923 -1.3971
26.5173 -50.9644 37.0279
54.5952 -48.8707 -23.4390
79.2837 -46.8850 -98.4768
56.2017 -88.8383 -39.0599
54.3851 -68.3869 -21.5727
65.8435 2.1334 -47.8245
45.7639 -1.4025 20.7609
20.5592 -48.2706 46.5372
53.2192 -95.0247 2.1578
49.6410 -0.7200 7.5227
47.8874 48.4231 -16.0625
51.6471 30.1301 -19.3703
51.3131 -23.9991 13.1521
57.2929 -116.0604 -32.1338
67.3883 -23.6764 -42.2618
57.6523 -33.7980 -9.0125
52.5745 -76.1857 -21.4165
72.2345 -66.1634 -73.4473
63.6634 -69.6327 -64.5217
63.2366 -17.0062 -7.8261
68.0533 -9.4206 -51.1805
67.2752 -57.7935 -54.7818
36.4958 -19.0614 43.1829
45.1655 -80.2859 12.6413
72.0778 -19.1541 -69.3667
21.7559 -83.6296 67.5891
67.4442 -38.8778 -30.9577
27.2655 60.0634 18.4253
61.3162 -124.7481 -28.7444
59.2455 -91.0272 -56.0572
44.9024 -69.0548 17.5404
53.4240 -79.8848 -5.8991
23.5811 -22.2534 60.7045
57.4734 -99.3652 -40.0710
57.9511 -98.7618 -36.5516
61.9189 -130.5337 -36.7886
44.5280 -69.1559 20.3085
69.9733 -28.6714 -46.9815
53.2620 -105.8092 5.3722
31.5963 -84.9021 53.6544
21.3579 -91.4498 67.6856
25.3665 -46.3879 37.0907
52.1824 23.1095 -9.6104
53.2875 -66.1830 -26.9807
56.7649 -84.7133 -72.8187
42.3596 50.1606 -0.5949
30.3052 -95.4357 60.0941
53.2650 27.1107 -16.8658
58.7844 -105.5420 -30.2315
44.4353 -66.8679 11.3005
59.6179 -104.1336 -29.9225
35.9073 -50.1008 20.0559
22.1360 -50.2415 43.4786
44.2438 37.9450 -6.7954
20.2398 20.5278 54.3937
63.5733 -0.7452 -42.9390
62.0973 -117.2674 -51.2967
46.6962 -56.2680 -7.4059
54.2069 -23.6587 8.8927
64.6192 -17.6548 -20.4432
54.1212 -82.7711 -22.2738
56.9834 -86.2721 -71.8149
26.8704 63.8825 11.2508
73.0945 -36.6692 -58.7649
36.1363 -60.6575 28.1406
75.0818 -60.9177 -71.0216
44.1358 49.6547 -4.2548
30.5112 25.2554 30.9920
46.8573 -85.0495 15.2671
38.6959 39.1195 6.1007
47.1361 48.1404 -10.4653
45.9631 -101.4077 32.2742
61.6698 -117.9832 -54.7789
45.9363 -73.7780 17.5313
23.3395 -61.8753 56.6447
47.5303 -58.6653 -2.0108
65.0718 -3.3840 -39.2534
20.7294 -52.4948 46.8931
53.7579 -85.4369 -4.0034
43.5803 -91.9029 31.3297
50.7788 -102.7428 12.1230
39.5403 56.1908 -6.0667
54.2441 -100.1729 -18.2961
43.7996 34.0737 3.3236
61.7213 -118.9137 -47.1521
80.0889 -41.5224 -82.2927
66.6877 -57.1810 -53.0890
50.8931 -102.1289 12.2934
51.5247 -63.7711 -35.5200
49.1169 -86.9331 2.0472
60.6173 -12.4896 -10.3979
50.2818 -48.0428 -15.0864
67.2990 -22.9567 -28.4659
51.6079 -76.7100 -17.0866
61.2794 -95.9776 -55.3958
36.1622 -74.5502 31.6566
55.3326 -87.4976 -26.4722
58.6059 -111.3041 -16.4838
46.2440 -67.1437 1.1482
55.6999 -77.0879 -62.5035
25.8532 -19.0373 60.5889
56.1746 -115.5648 -7.9626
67.9323 6.8816 -46.5652
54.9055 -61.5674 -40.5909
58.2602 -108.1915 -3.5933
52.0463 -74.9115 -19.5846
58.3529 -97.2220 -50.0680
48.0898 -13.1611 24.7881
56.8468 -97.9757 -48.6186
47.4330 16.5363 4.5254
-33.6314 -107.1367 -62.3264
51.8957 -77.2409 -17.5741
62.2828 -40.9872 -25.7167
25.3436 -83.3004 63.2878
43.2068 -73.5687 21.2553
49.0182 15.6146 0.0829
58.4651 -103.0149 -42.1124
64.6155 -17.8729 -26.1179
55.5290 -82.8031 -59.8759
45.2079 -100.1458 31.7106
52.5998 -10.6324 13.8379
59.6072 -112.4650 -54.4744
59.3852 -116.4394 -22.4764
26.7703 44.4190 26.5782
79.4171 -44.2742 -92.0110
57.9298 -90.3394 -14.1969
58.5976 -91.3556 -73.3440
80.6944 -45.5736 -87.8853
49.3268 -95.8239 20.0707
49.6147 12.3532 7.7062
40.1130 37.8433 5.0606
49.3450 29.7139 -4.0613
33.1506 7.5882 35.1156
77.8671 -28.7063 -111.2666
42.2943 -87.4381 37.3731
55.2243 -69.8080 -28.0252
47.7880 -88.5956 24.3087
17.4903 42.7609 43.7443
23.8819 -78.2309 62.2005
77.3576 -30.8750 -72.7980
20.5335 -69.5531 55.5058
58.2443 -104.8109 -3.1795
77.2635 -49.6760 -84.6838
31.6436 -90.3605 51.4586
40.0937 20.1431 16.3793
71.2271 -64.3613 -69.6143
76.1414 -17.2859 -95.6016
75.4472 -28.6933 -61.9194
33.2765 23.6028 27.1571
28.9602 27.5998 30.0890
32.4578 -59.0564 34.7605
45.2766 -90.3501 30.6684
56.1846 -83.5140 -56.9310
40.7560 -62.4437 15.7889
60.5996 -116.1127 -56.5139
55.7510 2.9893 -5.4089
48.0714 4.8220 6.4575
58.5847 -82.8786 -43.8044
57.2144 -90.2920 -22.2281
76.2630 -11.4729 -74.6704
78.0211 -27.8597 -108.5600
72.3729 -17.3724 -49.6721
52.0634 -92.9304 1.2282
36.9731 -80.0563 41.0088
55.1974 23.6345 -14.3962
51.9668 -92.8392 -5.7122
58.1546 -89.1323 -14.0503
50.6402 -90.3129 3.2137
16.7119 -40.2882 51.3982
53.7166 -80.6836 0.7189
56.6396 -94.7183 -45.4000
60.5305 -73.3146 -64.3778
57.5073 -88.7320 -16.8381
70.7117 -30.1330 -49.1966
34.4751 -56.8829 24.4030
66.4933 -74.4654 -75.3531
39.2653 -62.1614 22.8230
50.2232 -98.1125 16.6672
44.4501 -61.2740 3.1643
24.4318 45.7980 29.1805
23.4686 -13.0737 65.3796
73.5473 -19.8440 -56.7178
57.7823 -87.8174 -57.2030
49.8013 -73.1774 2.6706
58.8125 -101.1229 -36.7821
79.7775 -27.2491 -97.5909
46.1708 -66.5969 -0.7040
45.6596 -83.3545 15.6495
58.2744 -116.8833 -28.8323
55.9955 -91.9787 -41.6436
58.3129 -115.7124 -26.4111
75.3180 -25.7441 -68.4219
51.0283 -91.0328 2.1711
55.5967 -94.0564 -39.2544
26.5442 -22.2011 56.0071
60.0585 -90.1959 -50.4363
57.8572 -107.0451 -58.5227
47.9461 -100.0375 19.2762
42.0814 44.5543 -4.0901
60.8449 -75.2328 -67.3930
57.0126 -76.5704 -36.5071
49.8831 32.9670 -20.2784
62.6050 -64.8846 -56.6133
61.1957 -123.8021 -27.5376
63.8785 -0.8440 -46.0396
75.5305 -12.7123 -88.6922
56.5359 -8.6944 -1.4045
35.5771 -81.2918 47.5904
78.5696 -34.0601 -74.2011
72.8898 -33.9163 -42.5997
37.1565 -55.0130 18.8869
60.7931 -90.5932 -47.5464
77.8016 -52.1461 -76.5635
59.2173 -82.7307 -75.0802
-33.6314 -107.1367 -62.3264
76.6683 -14.0096 -83.1937
38.7518 18.8145 22.8312
74.4628 -29.1434 -87.3459
64.9075 -3.2258 -42.8668
40.3453 3.4670 24.7556
34.3864 39.5729 16.6501
57.9747 -99.7718 -38.3605
24.0680 -58.5430 50.6773
44.9476 -97.3108 26.1345
29.8703 -43.7589 25.3995
75.8683 -61.2849 -72.6530
43.4558 -83.3352 29.3562
60.0990 -119.0407 -23.8947
54.1089 -99.7898 -16.8835
55.6389 -108.5197 -27.5891
23.3677 -74.9635 58.2080
33.3163 -42.3080 20.6876
79.0509 -56.1618 -79.7498
49.4656 -57.9699 -27.2483
58.6298 -101.9557 -39.2763
80.7397 -61.3136 -83.2649
22.5766 -87.0947 63.7292
63.6231 -22.0768 -7.1698
62.7359 0.1726 -19.3751
57.1765 -117.5416 -35.5332
32.3504 -73.8042 39.9833
63.5286 -60.4887 -52.3960
43.3203 -74.6752 20.0222
63.2256 -78.0043 -74.8077
60.7576 -108.5968 -41.3962
55.2817 -91.2191 -39.3928
55.1703 -67.1475 -48.6182
50.9195 -103.9379 11.0893
39.7106 -34.2590 19.7192
56.4395 -100.3248 -48.5713
53.9728 24.7600 -11.6470
69.9138 -12.9644 -53.3830
62.1756 -37.4867 -21.1801
59.3005 -97.6382 -27.6072
56.9059 -103.2242 3.0318
63.5214 15.2220 -43.2118
54.7573 11.6653 -18.1255
69.3962 -63.0987 -65.0514
47.1664 -102.6728 30.0458
27.2198 -44.0538 30.0908
56.3560 -90.0440 -26.5950
30.3358 17.3821 41.4902
47.5488 -83.6104 6.5879
59.5948 -103.9783 -38.3483
52.0589 -38.7002 -6.1257
39.9943 36.9275 7.3514
52.5954 -65.9444 -34.6718
81.6032 -67.3100 -88.7916
54.5366 -103.6505 5.6671
35.3669 -51.5036 24.0070
52.3617 -56.4777 -29.5861
64.6839 -2.7392 -41.1444
59.0119 -80.9794 -36.1052
59.5319 -112.7011 -14.4463
79.8509 -31.8790 -107.3744
54.6307 -102.1939 -17.8509
31.6587 26.5671 25.0970
54.1660 -73.5578 -47.9369
48.7474 -91.6235 24.9436
26.0947 -69.5148 47.8966
37.8820 36.5101 13.9017
58.0597 -113.9041 -37.5113
74.1433 -27.3253 -85.3630
50.0715 29.1365 -6.0541
49.5117 -100.5772 15.9506
73.7448 -24.9734 -83.3498
76.7656 -41.1929 -99.7447
75.9193 -12.6446 -84.2156
45.4782 -85.0864 24.0513
54.0150 -97.6562 -15.7704
30.6778 -91.8463 54.2883
72.6341 -21.5196 -76.8394
65.1942 -19.0798 -29.3914
43.7861 17.4622 12.2823
69.6108 -35.7378 -30.3412
61.5641 -96.3062 -54.6088
54.3829 -81.6616 -8.3762
33.0911 -58.3841 31.5308
38.7374 -80.1328 36.3080
52.4975 -14.5565 17.5579
56.7908 -86.4586 -59.5346
25.8551 23.0528 42.5177
71.7782 -69.4051 -76.8788
45.2301 -18.1359 30.1018
37.1214 -74.0672 29.3728
47.9982 -58.5727 -6.2931
61.0322 -109.5493 -37.0654
77.6187 -50.4127 -72.8290
61.2032 -119.0346 -46.6031
49.4771 -71.4310 -12.4048
57.4657 -120.9725 -41.5340
60.8854 -65.8321 -55.1262
46.7614 -53.8160 -17.0057
77.7650 -56.0481 -88.8536
79.3269 -54.2852 -72.5669
75.7655 -10.0289 -72.6312
37.7152 1.9119 35.1438
73.2442 -37.7020 -62.3890
41.4586 38.6370 -0.2482
77.7554 -36.6198 -84.2808
53.9498 -80.9326 -13.3340
57.3328 -97.8248 -37.8309
49.5802 -59.6875 -25.6634
53.5310 13.4443 -17.5597
59.1495 -102.5037 -37.7439
51.5102 -2.9655 5.4381
54.6671 -50.5739 -25.7800
60.2735 18.7409 -24.8790
55.2435 -24.5154 6.1943
53.3111 -79.8161 -17.2108
53.2884 -75.3126 -22.0185
55.0680 -84.2798 -4.5556
47.2911 -42.3541 -2.9489
56.3432 -102.6851 -9.1228
70.6145 -15.2740 -69.2104
78.9056 -47.4028 -101.6822
37.6957 -90.1223 41.0762
33.6847 -94.2056 53.1809
53.4932 -95.6052 -4.4964
46.1908 15.3548 10.3935
39.9945 -88.4085 39.3845
50.8241 -62.4577 -20.3981
46.0332 -54.5679 -12.5683
78.9932 -51.3363 -65.3329
57.9882 -89.6894 -59.7487
74.8417 -65.6608 -76.6763
77.8134 -34.1929 -78.6302
41.3386 -98.6290 42.3152
24.0299 -87.0630 61.7909
47.2134 -41.6907 -1.9906
56.1106 -76.9538 -44.1519
56.9316 -89.0984 -11.6911
52.4723 -65.2078 -20.8537
76.0540 -28.5664 -74.8997
54.8859 -15.6470 11.5914
58.5952 -106.7335 -2.5928
55.9526 -84.1817 -60.0138
43.0229 -61.4917 5.4037
-33.6314 -107.1367 -62.3264
55.3118 -87.2607 -26.0312
47.9986 -57.0496 -22.1403
66.5709 9.3723 -47.4558
74.9164 -7.7314 -70.0408
56.8225 -9.5546 0.3447
49.9509 -73.4652 1.4241
48.1261 -57.8368 -19.6106
52.8974 10.4067 -2.0484
41.4310 -94.4162 34.3855
56.8739 -95.0205 -34.7596
55.3557 -88.7187 -29.2305
67.3817 -23.6182 -41.1202
59.4000 -84.7373 -43.3000
26.8256 60.6345 18.3713
26.0089 46.2610 24.6432
73.2888 -50.6447 -55.0153
19.8629 23.3841 50.8556
61.2164 -123.1164 -26.1281
68.9825 4.7168 -51.6643
57.4814 -85.7555 -54.7660
34.3521 -47.0974 17.8256
17.3610 30.3583 44.9888
44.3508 51.8391 -9.5444
60.7925 -33.1899 -13.4546
64.9225 -59.7144 -53.5746
29.5669 -55.1495 34.1232
77.3754 -35.2748 -83.4040
41.7760 -69.2889 27.3036
41.6025 -51.8035 2.8539
58.3517 -88.9001 -56.4399
79.5182 -24.4306 -92.8113
49.4748 -64.4552 -6.4377
78.2270 -55.2128 -82.4970
41.2548 -100.5517 46.7895
55.3755 -98.9246 4.4032
78.8256 -59.8841 -91.8618
65.6377 -51.7810 -44.6726
59.0203 -104.8971 -42.9483
55.8667 -98.0527 -19.1139
25.8119 64.5217 12.7055
56.0917 -60.7287 -41.3464
65.9610 -23.6767 -14.2156
48.3074 16.5203 0.6678
33.3735 -76.4804 43.0618
42.0832 20.5952 10.0847
45.6640 -99.8399 27.5716
20.0668 42.9067 39.7453
20.5723 -56.2866 52.6737
59.4099 -111.6095 -12.5634
54.9238 -89.9673 -36.7441
21.9615 -42.3819 39.3173
57.4714 -97.5560 -49.2597
55.3164 -90.0837 -32.6902
20.8754 -74.8676 61.8414
57.2758 -105.2614 -28.0113
22.4405 -88.8407 63.6903
43.5202 14.6087 19.1435
76.5079 -35.7514 -70.2198
58.0151 -108.7097 -60.2749
43.4942 -80.1671 16.7973
56.0560 -110.9894 -28.6092
56.3228 -110.4414 -26.2414
32.8428 -62.1527 40.5309
50.2128 -4.9971 16.6117
59.8063 -104.1614 -37.6494
56.2401 -109.4415 -24.7465
44.7479 51.3223 -9.4915
74.7576 -24.4016 -67.5583
50.5822 -71.7446 -14.7395
56.8625 -93.8259 -44.8108
54.7254 -71.8832 -38.1060
74.3422 -36.6797 -44.1765
51.8853 -64.4983 -16.5522
81.0643 -56.3021 -96.2796
56.0779 -110.3019 -27.1905
37.8849 4.8203 28.4197
73.5380 -24.0731 -80.7607
53.3247 -79.6684 -2.9459
-33.6314 -107.1367 -62.3264
29.8022 -66.8311 45.1526
69.9261 -28.1888 -37.1686
47.8638 -89.0810 25.8695
51.5547 13.3786 -5.9976
65.4971 -19.2466 -19.4094
53.6670 -22.9106 10.6681
56.6031 -91.8557 -29.4652
40.7833 56.0894 -9.1731
48.7596 -88.0121 15.7788
62.9381 -14.4022 -16.4959
57.6075 -85.1341 -52.9556
71.4900 -27.8524 -55.9925
57.1438 -89.4963 -69.4855
77.1042 -70.4297 -86.0743
54.5725 -74.4550 -47.2744
56.0603 -20.1416 10.2558
78.2116 -57.8967 -91.4282
78.7867 -27.4149 -103.3851
66.9634 -12.2322 -34.8140
36.5624 -41.6470 16.0261
31.6494 -44.0173 21.9931
78.6678 -51.0722 -64.1708
50.5656 -37.2919 -2.0251
55.5950 -83.9326 -13.5955
-33.6314 -107.1367 -62.3264
59.0889 -62.8301 -48.5403
40.5415 -0.9873 33.8345
48.6780 -59.7378 -6.2820
57.0206 -102.9528 -5.8443
62.5377 1.4976 -35.2228
77.8619 -52.4567 -77.0504
57.0303 6.3419 -10.2660
61.0868 -123.1844 -21.9641
50.8426 -3.9789 12.7316
72.4612 -35.8462 -34.8263
65.6536 -24.2363 -11.9158
52.9622 29.2531 -23.6519
73.0372 -22.4405 -75.8180
49.1028 -72.1529 4.2369
69.6785 3.2966 -54.7017
43.5265 -79.7676 16.2611
50.3117 -15.3862 23.5673
78.3972 -41.7100 -91.9548
49.8335 -78.8714 7.5045
59.8174 -107.8900 -33.8696
60.1789 -19.2442 -0.4012
62.1225 -114.3378 -43.1745
53.5893 -80.1785 -5.2821
55.0013 -69.6661 -29.1721
36.2076 -40.2645 18.2840
74.4820 -40.5126 -71.5400
48.1829 -64.0975 -4.4208
32.0306 -46.6458 22.2841
53.2322 41.9250 -21.6975
46.5466 -92.7841 26.6405
53.4813 -95.6178 -7.3104
73.6745 -39.2165 -40.8882
78.8791 -28.2294 -104.6705
41.9785 6.4409 16.5668
32.1373 45.8173 11.0033
44.8917 -69.2710 18.5137
30.8968 26.1537 28.0255
25.8680 -46.8326 36.7988
56.4540 -113.3825 -34.1910
58.7868 -91.7435 -59.6999
68.0674 -41.9988 -35.8077
52.4329 -32.8428 0.4581
61.0718 3.6577 -23.4771
39.3778 -47.5862 4.3015
30.5118 -9.8825 52.1195
59.2213 3.8483 -13.2649
79.7751 -57.0187 -77.3987
37.7891 -12.6993 46.3434
63.1976 -66.0346 -59.0625
59.4528 -87.2984 -47.9198
54.4696 -97.2181 9.0272
57.8710 -80.3853 -42.3800
18.6271 -40.9302 46.5830
51.9116 -64.8815 -38.6079
57.6865 -90.0051 -18.8226
62.1246 -99.6357 -58.1733
35.1448 41.6330 10.1817
20.4706 -46.6611 44.5032
53.1673 -13.8061 13.3777
68.2795 6.0463 -51.0996
39.5749 -24.2952 31.8386
52.7167 -84.8273 -2.0625
27.3572 20.2706 44.2944
58.1517 -109.4566 -55.9490
48.6390 -92.4113 24.3094
46.7792 -99.8597 22.8956
47.6934 -87.9673 22.2664
22.0747 -36.9838 46.2323
35.2560 9.1760 28.0427
49.7016 -84.2452 2.3960
58.5616 -11.1839 -3.4391
75.7349 -45.3251 -70.7853
27.6704 -48.1379 35.1831
52.8267 -103.8541 7.6713
58.5075 -87.3733 -52.7561
68.5006 -35.3029 -28.1038
59.1244 -119.4000 -29.4108
40.7264 20.2542 14.4479
74.0311 -5.2919 -66.7264
49.3299 -58.6915 -27.3138
55.0078 -70.6038 -32.0708
54.7263 -99.6921 -11.3684
59.3294 -105.2721 -42.1309
63.6983 -0.4327 -45.5347
48.2348 -57.3691 -23.1539
64.0937 -16.5522 -17.2827
73.8748 -7.4811 -79.7091
61.4764 -121.0697 -20.9371
56.8837 -91.3268 -69.6468
53.4354 -96.4957 -12.0450
58.0754 -123.4485 -46.3181
45.5413 -55.7089 -2.4988
21.6208 65.7263 21.3231
67.6352 -8.3006 -58.2891
41.8362 -25.5951 26.6496
61.5630 3.5951 -28.2833
55.2582 -79.9557 -57.1451
56.8056 -13.7986 5.3065
54.3768 -97.2941 -7.7029
36.0684 -71.8146 32.1801
40.1809 -61.6719 16.1548
48.2428 -70.2902 -7.4082
58.8345 -88.5313 -53.3400
42.1251 -81.8818 30.8186
78.5435 -53.9250 -76.7272
65.8321 -28.3384 -15.3310
34.6765 -75.3661 37.0044
71.6043 -28.2034 -56.4845
49.0504 -86.8325 2.2888
41.7773 -43.0419 5.4940
58.0095 -101.0036 -40.5367
52.7402 -92.7459 -9.2584
68.8781 -10.9474 -51.0872
52.6554 -66.2168 -35.0990
33.1030 -78.0042 47.1707
49.5316 -4.1692 16.6486
55.4070 -93.3726 -39.4470
80.2019 -61.9891 -88.7548
57.0644 -101.2607 -23.8090
79.9990 -58.6311 -80.5166
72.7857 -33.8493 -45.7450
55.6108 -79.0656 -62.3910
58.7471 -92.4052 -61.1582
57.1519 -88.1963 -61.0543
38.6147 22.3756 15.5247
70.1884 -32.6983 -27.4256
38.3261 -46.0812 7.4928
37.3322 6.5173 26.2392
56.5794 -83.2045 -70.8564
67.1581 -23.1542 -39.9221
53.3132 -79.7932 -14.9931
55.6984 -89.1074 -38.5535
58.1866 -119.1407 -42.8187
55.1998 -23.6158 7.3664
66.5205 9.0092 -58.3716
80.3583 -46.1908 -91.0787
47.2797 -85.5565 14.7485
57.8986 -110.0553 -4.9579
43.5948 -51.1159 -6.0699
77.3111 -35.5316 -84.3197
39.9161 41.0333 -1.2424
51.6070 -92.0917 1.7992
69.2192 -27.0430 -41.3510
47.6396 -55.3547 -20.4901
75.0913 -27.1316 -77.8137
43.1970 -53.2078 0.1129
55.8883 -85.2096 -6.5264
49.4283 -71.6835 -12.3241
50.1629 -60.0768 -30.5366
57.3209 -102.7123 -47.2093
69.7347 -68.9697 -73.2899
60.1581 -114.1865 -11.9286
44.7829 -48.5054 -7.1668
57.0764 -67.0726 -50.7893
45.0800 -92.3317 28.9753
23.0939 -92.9221 67.3452
72.3338 -19.7479 -69.6614
75.2395 -11.6651 -86.4611
76.3923 -50.2108 -80.3724
70.7479 -14.8362 -61.1920
57.1830 -95.4827 -34.1084
57.7499 -98.7096 -37.4502
46.5098 -98.0720 22.6398
60.7261 -99.0495 -54.9221
68.6257 -73.9486 -77.9623
77.4503 -30.2033 -68.4164
46.2448 -57.5440 0.2317
52.9408 -89.0624 -6.5114
51.8141 -77.0356 -12.8915
31.0741 19.6628 39.6989
39.3214 -46.3586 5.1287
59.1428 -111.0285 -12.7287
77.5101 -45.6576 -56.6541
64.6364 12.7364 -53.0993
26.2327 11.0116 42.6895
61.4499 -117.5381 -45.4511
52.0642 -92.9600 -1.0750
73.1699 -19.1979 -58.0208
80.6284 -61.6014 -84.8236
21.1340 -74.4086 60.7798
53.5058 -80.0528 -7.4638
26.5969 -8.7876 55.7092
62.7970 -41.2095 -26.7791
36.2629 18.2814 30.6359
78.3813 -50.3143 -67.4992
67.3638 -23.4924 -38.8223
55.2491 -71.4513 -33.0086
54.4419 -90.2625 -9.6251
80.5871 -60.9272 -83.1733
74.7308 -42.9288 -73.1504
30.6556 -48.2919 28.6242
53.1463 -57.0872 -31.7034
67.5900 -23.4626 -27.5780
47.4366 -99.3862 20.3450
21.9001 57.8500 32.7961
36.5380 -91.3965 42.2661
49.2234 -59.1141 -24.2292
40.5121 34.5299 11.1342
78.1419 -48.7518 -64.6257
22.6526 46.9485 30.1484
58.1326 -107.0175 -9.0559
56.6626 -87.9574 -19.8812
56.2361 -96.4168 -40.5842
53.1671 -85.8151 -3.6133
42.1533 -55.2784 11.5922
52.8934 -94.4418 1.2847
59.6691 -106.4354 -42.6666
71.5905 -16.5310 -61.3756
60.3754 -97.9650 -63.6728
60.9519 -123.4917 -22.0921
41.1095 0.5118 29.0829
57.1764 -65.0395 -48.3957
60.9734 -54.8534 -41.3533
34.8642 -58.9116 27.8015
53.9967 -66.8259 -46.7140
30.9335 -59.6307 40.2370
56.7376 -116.0615 -35.0286
32.5855 23.9170 28.3282
76.6130 -14.3650 -85.5878
65.9928 -65.0577 -62.2184
52.9106 -66.0094 -32.6245
45.5047 36.1363 -7.0241
71.7863 -53.4962 -56.3143
55.9851 -107.5751 -28.2528
70.9896 -30.7065 -50.6115
54.8825 -68.9916 -25.1628
24.9998 60.5654 23.4055
21.4288 -50.6805 44.2902
23.7811 63.5281 20.2809
50.7859 -75.1490 -11.9412
61.7627 -120.4827 -48.7467
76.2125 -46.9085 -72.1407
56.6908 -105.9136 -14.7678
60.2277 21.3921 -42.3621
44.0498 -75.2694 18.4980
56.2532 -72.5870 -29.4021
25.7433 -43.3684 33.0399
57.9043 -120.2069 -37.0002
80.5180 -60.9960 -83.8277
53.0645 -55.9251 -30.0511
61.6010 -47.1496 -32.3747
60.1553 -106.1771 -32.6226
21.3391 -80.1968 68.6214
75.3823 -45.7482 -52.0295
59.1768 -17.4944 -0.1405
63.5873 -0.2571 -30.3464
52.2430 -84.3298 -0.9632
57.2507 -89.3043 -40.8698
52.4054 -65.2237 -18.8796
54.1891 -99.2294 -17.4172
53.0164 -5.1478 5.2533
78.5245 -26.1491 -102.0375
49.4602 -1.2315 10.5053
62.4268 -13.4563 -17.3895
50.8331 -50.6319 -19.3901
48.0349 -70.1933 2.7129
69.0767 -11.5114 -55.7909
51.8483 -92.3881 13.5086
25.8874 -45.1582 33.7529
54.7991 -75.2765 -52.4922
48.0433 -70.0175 -1.1652
25.2098 28.0851 36.2581
28.4793 4.7415 47.7352
78.4479 -28.5507 -107.7407
39.1525 -98.2172 47.4457
52.1864 -64.5178 -24.0388
74.7240 -22.9531 -60.5608
35.4754 23.1486 22.2549
-33.6314 -107.1367 -62.3264
51.8989 30.5692 -22.6214
31.4841 44.6693 13.4296
40.5126 -63.0715 19.9436
62.2456 -13.2581 -20.8878
67.6413 -74.7432 -77.5097
59.9912 2.7885 -13.5829
58.3249 -95.8779 -69.8741
35.3148 -60.5202 30.1045
15.5822 50.0370 37.0214
-33.6314 -107.1367 -62.3264
47.4258 -68.3990 -5.4182
62.0018 17.9486 -45.7242
23.0075 -8.0730 59.3815
50.0029 -61.5678 -12.7826
60.7393 -94.3020 -54.8832
70.8154 -12.7949 -68.6536
58.9053 -116.2964 -40.9512
58.1854 -108.6165 -54.1799
50.9729 -62.8852 -17.6934
56.9846 -101.3591 -46.2962
54.5264 -85.3416 -26.0219
72.0556 -1.7119 -68.8412
54.1606 -100.1063 -16.9704
49.6346 -88.4891 2.5272
57.0212 -61.0496 -43.1631
33.6875 -59.7576 32.9130
52.3491 -83.9340 -0.7112
53.3978 -95.3503 2.1226
80.6591 -46.1355 -89.3130
47.9942 -71.4860 8.3767
55.1189 -76.1376 -56.4981
34.6045 -92.5452 47.4888
47.9634 47.5699 -13.0865
67.6320 -44.5922 -38.3832
78.8366 -39.5404 -84.7829
54.8960 -103.8127 -20.1560
30.2445 -61.2100 45.2205
44.9095 -98.2609 27.2820
40.7389 37.9735 3.1062
57.8453 -109.8794 -58.7556
76.0516 -42.9763 -59.4282
36.6204 -74.8061 30.8959
44.4230 -56.8776 6.3993
44.3500 -84.3799 28.1451
35.8552 -74.3797 32.1671
69.6917 -12.9255 -62.3695
59.1558 -128.1720 -45.9774
60.6869 -96.2330 -58.8247
51.0825 -104.4408 10.4539
76.8965 -50.7571 -78.5930
55.8511 -70.7451 -23.3242
46.4501 13.2789 14.1738
33.4263 -96.9749 57.6168
41.1386 -51.1725 2.9315
36.6593 -45.6689 11.4161
57.6970 -87.5491 -70.1674
59.0444 -109.4654 -9.5916
71.5098 -56.8067 -60.1534
38.7272 57.2572 -6.1929
33.4037 -88.7182 48.2894
57.3578 -92.3066 -72.1847
65.1097 -51.2618 -43.1825
56.9943 -86.9152 -38.1924
65.2385 -3.9709 -46.0281
52.6473 -16.2913 19.6043
76.9055 -34.0132 -83.2024
78.5201 -52.5856 -73.0608
60.7172 -93.9372 -54.2976
50.6549 -92.4737 21.6495
39.2980 -98.2747 47.1707
57.6348 22.2454 -23.2773
58.4672 -99.0706 -34.5814
27.1860 64.0655 10.0120
54.0906 -96.4791 13.0068
43.9159 -83.0546 25.3004
64.2824 -0.0952 -47.3795
56.7370 -103.0777 -7.7787
75.1789 -26.2684 -72.5403
46.7522 -56.1069 -11.2122
58.4805 -93.3608 -64.3038
43.4491 -61.5342 4.6479
69.9951 -28.8292 -49.8954
32.3519 -43.2733 20.6147
57.9835 -108.2283 -54.4404
61.2388 -13.6934 -9.2582
56.6878 -88.3154 -20.5838
81.1600 -46.0782 -86.4504
60.8095 -20.3452 -0.2969
76.6969 -28.8979 -69.7893
24.6410 0.9415 58.8261
68.5048 -36.4387 -29.5290
62.8784 -14.5684 -24.2555
58.8225 -126.3615 -44.1782
-33.6314 -107.1367 -62.3264
49.7723 -73.1388 1.4872
56.9878 -74.5742 -30.4052
57.4873 -111.0737 -33.9933
59.6086 -86.9253 -46.4352
43.6993 52.5511 -9.3381
38.2317 52.2780 5.8791
62.7286 -72.7795 -67.1653
78.2147 -27.4684 -106.6376
63.9350 -79.0428 -77.2961
56.7758 -83.0448 -63.7524
56.3285 -94.5903 -16.3083
72.3941 -18.8741 -64.5958
52.0636 -61.4455 -36.4234
48.2542 -86.2154 11.4097
51.2804 -76.0923 -15.3793
76.3225 -28.4110 -71.2882
62.3079 -53.8699 -42.1836
76.3106 -34.0229 -86.4785
60.2774 -118.5227 -22.0227
74.9852 -40.0886 -56.0833
45.4821 -53.5809 -10.9031
80.2985 -34.0211 -109.6339
59.9996 -103.3117 -58.1724
74.8985 -39.2580 -71.4658
71.1387 -15.2082 -52.6910
47.1966 -71.3608 12.8425
56.3945 -85.3891 -13.6047
60.2216 -121.2223 -18.9214
78.8312 -50.5190 -64.0980
40.7604 36.7515 5.6817
60.0863 -46.3620 -29.0794
57.8026 -94.2319 -28.1762
66.2877 -53.1138 -47.3311
57.8802 -110.1129 -59.1160
41.7340 0.6410 27.1340
66.6376 -21.0513 -42.1193
55.9134 -110.4653 -28.7028
56.8846 -85.9027 -73.3878
58.9673 -119.3246 -15.4405
35.8116 -81.8360 48.1434
58.3996 -98.6639 -51.5444
74.7312 -62.4547 -72.4495
77.3334 -49.8073 -84.9371
43.0479 -66.7245 19.3831
50.3270 -86.7337 -0.7677
61.8723 2.8555 -39.0684
55.7438 -101.7036 6.0233
59.7700 -117.5399 -14.7223
62.2862 -126.0584 -26.4355
46.8884 49.7039 -15.2753
50.6651 -74.8018 -1.3957
54.3657 -99.7556 -13.6020
54.7254 -99.9961 -12.0943
62.3887 -118.6546 -52.4984
77.6544 -31.2860 -71.7415
42.3263 -73.8826 22.0819
51.8251 -77.0357 -11.2279
57.6560 -119.1429 -36.2050
55.9844 -106.5368 -20.3265
45.4254 -84.6441 22.5253
58.9615 -37.0456 -15.3918
42.7879 -82.6248 30.5536
45.1173 -11.6233 28.5272
57.5140 4.7900 -6.9134
59.1216 -104.9842 -42.6121
45.4361 -23.2183 23.6999
51.4188 -63.1877 -24.5837
33.9428 -60.9523 34.8441
72.6567 -18.0574 -53.4856
19.0573 59.2863 34.9193
45.8943 48.7457 -6.9977
55.3173 -25.9804 4.2816
33.9044 22.5522 27.7413
38.7748 -47.4465 5.7807
49.7114 -60.6681 -18.7155
75.9855 -58.5099 -69.3101
39.2587 -99.0114 48.9052
47.8216 -35.9036 4.1987
55.3944 -73.8828 -39.6062
57.0438 -77.0227 -37.7071
38.0643 -79.9914 37.8540
77.1200 -47.1098 -82.1657
80.1184 -57.5602 -76.6701
59.1876 -109.5217 -8.8981
66.3495 -21.1528 -27.5047
50.2616 45.9497 -20.2257
56.6935 -77.7086 -42.3649
44.6658 -50.3903 -8.8605
44.0448 -10.7964 29.3585
52.4874 -93.6983 1.6036
35.1012 -93.6943 48.6529
50.0888 -61.5758 -14.8440
56.3003 -74.9661 -36.5455
72.7417 -20.9413 -71.3772
55.4771 -107.4039 -26.4594
57.5635 -88.2467 -59.1072
62.1587 17.9877 -37.7102
55.2095 -80.7515 -57.4785
74.3004 -38.7853 -56.7307
54.3218 -97.0667 -0.6066
53.3125 -67.2280 -44.7911
41.6332 41.1398 -4.9401
47.9047 -59.5515 -0.8512
60.4422 -98.9395 -65.1988
31.3751 25.0100 29.2106
36.5668 -13.1116 48.2944
52.9573 -68.9830 -43.7024
54.8290 -88.5303 -31.8259
61.6516 19.0531 -34.7872
53.2660 -81.4410 -25.8553
39.0305 -28.9389 27.1674
22.9863 21.7028 48.6708
54.7419 -82.2550 -3.3698
41.9321 -52.3162 3.0073
57.9350 -108.8379 -55.8436
26.8207 -76.8705 55.7647
61.7935 3.2196 -26.0011
24.9714 -79.0244 61.7096
53.0116 -94.3807 -9.7873
51.8965 -64.6353 -14.7413
56.2929 -73.4107 -31.7051
54.4839 -99.2588 -11.7417
30.1756 -91.4570 54.4803
48.0027 -57.8147 -17.6367
58.5331 -96.3333 -28.9426
55.3755 -98.9246 4.4032
76.3097 -34.7692 -88.1236
59.4244 -93.8102 -60.4739
52.4874 -93.6983 1.6036
41.3840 -51.0579 1.4391
56.8576 6.0745 -8.1696
50.1571 -98.4785 16.3928
79.2852 -43.1491 -90.2595
56.7941 -111.3561 -33.2636
59.2172 -60.4963 -45.8129
67.6863 -47.1004 -41.6809
53.9526 -84.7048 -27.8269
43.5930 -53.1200 -1.9817
21.7662 -86.9138 64.8900
36.4113 -83.7858 48.5441
69.7700 2.7470 -63.7420
52.2394 -65.1408 -34.6917
63.6365 14.6723 -51.3204
59.9993 -107.2681 -42.6188
77.6544 -31.2860 -71.7415
48.3164 -102.9270 23.9122
69.2232 -26.6403 -31.1189
49.9048 -48.1589 -14.6021
42.6852 -0.3891 26.8106
53.1311 -67.4992 -14.1407
60.4777 -130.0404 -42.9891
56.7157 -96.5675 -38.4936
67.2748 8.0945 -46.7573
80.1498 -57.4967 -76.0120
76.9787 -14.2443 -81.1037
56.9365 -86.2093 -58.3364
56.9787 -111.2598 -33.5205
74.3576 -38.3739 -54.0372
70.3792 -13.9572 -56.4971
33.6471 57.3680 7.1592
53.6206 -95.8075 -2.0713
54.8983 -89.2260 -33.0730
77.1974 -45.3724 -59.4390
77.8512 -49.2338 -67.9258
43.5520 -64.4716 6.7954
59.2009 -104.4013 -41.1070
56.1800 -32.8140 -5.4653
21.1296 -47.9877 45.4096
29.9988 -75.5119 48.9702
57.3185 -100.4388 -42.8861
52.9869 -107.3301 4.9341
64.6611 -17.6232 -17.6798
65.0467 -72.2015 -70.0871
61.7566 0.6586 -15.5154
50.6439 -90.7330 15.3896
44.2065 52.1636 -9.8589
34.7764 -46.3059 16.0864
21.4939 -66.9757 55.7204
58.1182 22.1904 -25.9218
63.9868 14.0610 -50.3287
58.7641 -96.3138 -68.5247
60.5509 -56.0232 -42.2416
27.3184 28.1579 33.0528
50.3372 -61.8342 -17.3174
17.4040 -48.2606 50.6707
59.0890 -93.7983 -62.1163
20.4110 47.7750 32.2603
42.5836 -92.8473 32.1785
63.4084 15.4433 -42.9503
67.6912 -7.9338 -31.5427
48.9371 -2.1315 13.8451
30.0242 19.6069 41.3230
68.8660 5.0488 -48.9145
41.9168 -38.8879 10.4379
27.4846 42.2015 29.4487
74.9426 -48.7287 -55.1433
59.7569 -124.2207 -35.4658
53.9575 -68.8450 -48.7232
52.5224 -46.3168 -16.6154
60.7369 -118.5127 -19.7263
77.2401 -37.2747 -88.5390
63.6754 -24.6091 -7.4359
42.8679 -65.8862 16.9961
24.4660 -56.1732 46.6104
60.2456 21.4557 -40.0184
58.7189 -82.1004 -41.6547
42.2943 -87.4381 37.3731
40.7161 -24.9539 29.2167
-33.6314 -107.1367 -62.3264
56.4515 -76.6833 -27.4423
59.4494 -82.1671 -36.7183
67.9623 -37.1181 -29.5500
58.3575 -92.6591 -21.2426
55.1837 -90.4525 -38.5256
50.3324 -60.8830 -29.0640
55.1488 -88.3428 -29.5352
67.7788 -24.4698 -43.9444
44.9662 -47.7141 -6.0958
49.5597 -31.3632 6.9281
52.2589 -93.3345 -2.6957
55.0237 -79.4734 -55.8926
31.7417 -72.1554 39.0552
56.5777 -117.4165 -10.3343
63.1598 -15.2120 -27.2480
58.9573 -16.6966 0.3304
52.2151 -48.0452 -18.3497
43.4278 -9.1172 28.5611
38.0485 26.7627 12.5464
37.7312 -51.7616 19.0751
58.0060 -76.9829 -30.7133
50.4785 -105.8125 22.4854
32.5142 -39.4661 25.5128
39.7208 -87.4354 40.6932
46.4480 -55.5501 -11.7434
42.0295 -96.8743 36.5341
59.8106 -107.5352 -44.0634
30.8000 -62.7581 46.6420
25.8349 19.8949 47.0717
70.5002 -28.9348 -29.0875
37.4288 -81.0990 42.0527
58.6431 -115.1084 -39.4464
32.2181 -11.7738 52.4174
59.8761 19.6556 -26.1872
55.9844 -94.5928 -43.8216
50.5074 -90.1190 -0.7115
33.4815 24.4289 24.8290
46.4101 -65.9877 -3.0133
49.7886 -103.0880 14.4853
62.1749 -79.7721 -75.4586
61.9421 -134.6494 -44.5188
56.7125 -96.4545 -38.2940
39.2226 -91.8686 37.9399
55.1168 -69.4322 -24.4660
54.8627 -88.0163 -30.4140
46.9966 -56.4509 -12.3154
64.6334 13.0433 -45.8161
60.4243 -65.6743 -54.1872
41.6390 -51.7246 2.4316
59.5966 -92.5495 -57.2159
57.6881 -87.1364 -69.0937
56.6295 -83.6408 -66.3266
41.8086 -50.1278 -1.4324
24.8521 -59.0214 50.1890
37.4704 -16.1520 45.0115
59.0111 -100.6276 -34.8530
53.2191 -108.9982 3.4221
60.8523 -121.3917 -24.6441
42.1031 -78.5210 19.5672
24.7649 -7.3122 56.2487
65.5797 11.1118 -49.9002
79.1905 -25.2339 -96.3742
71.5981 -16.3154 -58.8287
76.2955 -31.0973 -80.1324
65.6112 -19.2773 -12.8065
55.7416 -47.7123 -23.8626
25.6312 -38.3387 38.5526
36.6340 -28.9758 31.0770
48.4176 -58.4509 -18.7375
57.3350 -66.0023 -49.8428
54.7527 -102.6059 -18.1229
61.4250 -53.9990 -40.9179
33.3524 -73.0127 36.3478
56.7952 -107.1446 -29.2416
71.7222 -18.5757 -70.1986
47.3163 -71.1497 11.2082
56.3934 -72.3609 -23.1216
60.5313 -11.6381 -13.3023
59.9323 -110.1365 -48.4220
58.2647 -125.8684 -46.0019
35.7208 5.7764 32.1467
79.8831 -32.1969 -107.8972
55.8625 -110.0342 -29.4801
28.7383 -96.3208 63.7598
43.1295 -61.6131 5.1555
66.2201 -25.4248 -13.6420
45.7659 -68.7936 11.0405
51.7615 -5.6880 13.9588
33.1830 -54.1982 25.3433
67.8182 -9.0771 -53.4826
37.4788 20.1281 23.4050
59.6275 -93.0339 -57.9861
80.8817 -51.0767 -98.9544
42.0302 -1.6273 31.2327
53.8832 -97.3635 -10.7188
31.5899 -95.4155 58.1195
57.9301 -121.2393 -38.8394
57.1796 -105.3652 -53.7651
37.4035 -58.8002 20.5504
30.5335 61.1484 7.3424
39.0611 41.5444 0.1164
26.0321 -25.1549 53.5862
55.2611 -76.7610 -56.6307
43.7849 -18.9190 31.4903
37.1971 -93.0500 42.2706
60.6607 -102.2551 -29.7796
60.4355 -120.6385 -47.1889
44.5310 -26.9788 20.6637
57.4314 -119.3086 -37.6350
54.0984 -96.5410 9.0964
35.7036 7.4845 28.5101
55.1586 -73.3527 -57.5852
62.7126 -104.4121 -64.3588
20.8700 28.7863 41.6358
43.6071 -78.9572 16.0306
16.9113 -46.0393 48.3492
77.4684 -45.7377 -58.4198
54.1739 -23.0473 9.6944
49.8165 -61.2523 -12.7284
54.0411 -67.9274 -19.7215
57.2780 -75.6744 -31.7941
73.1336 -5.3361 -76.7038
44.6037 51.6463 -9.8052
49.0334 -71.8246 -1.2900
63.2613 -24.7294 -6.8180
43.6558 15.4657 16.9337
56.7295 -67.5928 -50.9129
77.1710 -38.7093 -73.9800
44.6482 34.0414 1.1238
47.3015 -82.1863 7.9534
31.4719 -61.2197 42.2574
59.7419 -128.9144 -44.4884
33.3724 -32.8390 31.9904
25.8642 -95.8213 67.3832
28.5535 -52.1430 33.3713
80.1225 -33.4259 -109.2889
40.0559 15.3557 26.7978
59.0002 -111.5437 -14.7742
80.2013 -48.0753 -87.0861
58.1192 -114.0899 -24.2810
60.1246 -123.7172 -32.6838
55.9364 -73.8300 -35.5685
57.0755 -9.6023 -0.9655
75.4470 -69.9931 -83.0640
59.6024 -109.3020 -48.4647
30.4763 -44.0385 24.1312
57.5358 -105.4702 -56.4697
60.1874 -93.1105 -48.3941
66.4777 9.1702 -56.4042
58.9779 -104.0105 -57.5418
64.2921 -2.0867 -43.0270
80.5912 -60.6612 -79.1857
22.6755 -70.2113 52.8683
57.1277 -102.2073 -3.0581
57.4900 -91.0877 -71.6413
75.7247 -26.4825 -67.8521
51.2830 44.2721 -19.5516
56.4263 -88.4127 -66.2660
38.5072 -59.7219 18.4588
53.1578 30.8673 -29.4860
54.5728 -20.9942 11.5764
59.4553 -102.2153 -35.6777
48.2042 -57.6608 -20.3197
62.7629 -25.7721 -7.3032
69.1664 -27.2351 -48.5628
75.5401 -29.9373 -81.7162
80.0360 -46.0778 -92.5915
45.7914 -39.9907 2.5274
29.4568 10.5362 38.4544
35.0634 8.9950 28.5338
21.8980 43.4113 36.3285
60.9887 -111.7410 -46.2484
53.3494 -68.2868 -45.9006
34.2140 -89.7499 46.5775
59.8531 -71.7306 -61.2247
55.3328 -102.1894 -13.7848
38.0650 54.3309 1.8943
65.1551 -3.8541 -46.9698
60.5347 -93.8045 -54.9507
59.8702 -68.5523 -57.0829
66.0484 -20.9882 -37.3578
78.4452 -46.0204 -101.1637
53.3858 -48.0746 -20.3623
56.7879 -87.6049 -61.7344
57.4748 25.4356 -35.1061
40.9263 -50.1576 1.4115
56.2187 8.8166 -15.3731
58.3991 -100.7788 -38.1761
58.4703 -91.9791 -61.7204
-33.6314 -107.1367 -62.3264
74.9487 -23.1490 -59.2158
55.4930 -51.6157 -28.5303
33.0664 -90.2657 48.7078
49.1393 -60.6360 -4.6782
45.7982 -12.8168 29.2704
56.9423 -106.9491 -15.7699
57.4034 -103.9526 -6.0026
53.7737 -70.2430 -39.7532
53.4510 -6.9715 9.9881
55.5344 -72.2112 -33.3569
60.5287 5.3177 -33.2463
31.1818 19.3541 39.9827
58.7889 -20.6266 4.9250
27.4294 -15.6071 61.6712
56.6785 -101.9823 -49.5631
58.1088 -83.6715 -47.6787
60.9867 -121.6428 -24.4565
54.2455 -97.9047 -9.9090
38.0871 -63.6566 29.3698
70.1733 -28.5854 -35.6089
48.6060 -86.8955 12.0587
37.0507 -94.2425 44.4783
46.8679 -45.3486 -5.9685
65.6396 10.9691 -50.6539
32.6000 -57.2532 30.3927
34.4535 -62.1293 36.0317
48.5504 16.7121 -1.5426
34.2007 22.7257 26.5754
53.0382 -48.9756 -20.9503
72.2131 -34.6092 -61.6994
41.1105 -10.8920 36.1167
64.0461 -22.9278 -7.8356
34.0471 -10.8468 48.8444
44.5923 50.1588 -6.5642
51.0067 -32.5393 3.0981
57.7264 -85.6820 -53.4094
55.2721 -92.4203 -38.7112
33.0116 -59.7213 34.6985
60.7718 -123.8266 -50.7539
25.1394 -17.2708 63.6734
52.8895 27.5316 -16.3264
56.1364 24.2660 -22.4898
51.8139 -104.4028 9.0656
72.3180 -2.2311 -69.5997
55.1979 -87.9446 -28.3085
54.9410 -106.5804 2.2678
52.5455 -109.3498 8.7326
51.2789 -63.1378 -35.3886
40.3770 34.0292 12.5754
57.8360 -92.2235 -23.2205
37.6840 21.7157 19.4355
68.5598 -60.2495 -59.9865
32.8477 -49.2931 25.5233
56.3107 -87.2260 -64.3966
58.8685 -90.4158 -56.7635
35.2952 -82.4966 51.0269
22.2607 62.7001 25.3172
21.5655 -42.8001 40.0547
46.6169 -55.4514 -14.5749
64.4526 -1.6011 -23.8153
28.8806 -55.7930 37.4358
78.1972 -27.3077 -106.3802
59.1693 -124.3877 -38.6965
54.0449 -82.2699 -29.3673
57.4871 -102.3094 -45.6167
54.0247 18.1799 -16.8274
52.1109 -64.8269 -34.6270
69.5755 -11.7113 -38.3250
55.5254 -11.1970 9.5121
66.0266 -44.4437 -35.7478
60.8810 -129.0422 -39.0881
79.7355 -66.7772 -85.3473
70.4241 -28.8304 -30.0218
58.1393 -117.2440 -30.1901
72.9350 -18.6828 -56.1106
57.6006 -121.2948 -40.5794
54.4456 24.9514 -15.2147
56.9623 -85.5295 -69.3602
65.3046 -67.4635 -64.2816
75.0676 -25.9371 -72.0442
58.0334 -8.8691 -9.5864
45.2603 -98.7550 26.6679
27.7750 24.5438 37.5584
59.1085 -113.0182 -58.0004
46.0321 -81.0454 10.7456
57.7909 24.9650 -35.0947
66.9024 -6.5059 -32.3967
46.6872 -2.0379 19.6614
70.0637 -28.5295 -39.2833
60.5303 -105.0949 -32.0430
57.0762 -90.6540 -66.1157
58.0587 -76.9121 -30.1143
43.5622 -52.7681 -2.9808
63.6642 -30.0495 -14.1605
70.2321 -28.5652 -32.3411
60.2616 -96.2649 -60.9970
47.9863 -69.9325 -2.7442
29.7514 -73.7719 46.8045
52.1344 -77.6135 -12.3697
61.2293 -61.3901 -49.9951
61.8895 18.2426 -43.6724
54.5483 -73.8091 -45.4186
58.7287 -114.0680 -38.5347
77.0973 -47.4369 -67.7907
55.9715 -86.8960 -8.2901
76.1827 -13.2550 -84.5188
45.2210 -70.1579 20.1696
67.1271 -24.6456 -18.2187
70.1948 -28.9492 -43.6564
41.0431 -78.3320 23.4580
40.8703 -2.1669 35.4987
32.7405 3.6981 42.9640
63.0795 -24.0236 -5.8623
52.2713 -66.3353 -38.2319
30.2678 -81.6542 57.5308
57.5471 -101.4932 -43.7626
54.4330 -97.3403 -6.4089
54.9162 26.3446 -23.5832
59.4518 -101.9921 -35.2696
56.3405 -71.7165 -26.0448
37.0538 50.6477 8.3760
74.0975 -43.3691 -47.0166
32.6511 -70.0950 38.2743
54.3720 -72.7266 -43.2784
54.6093 -98.7612 -9.8377
72.8111 -36.8550 -62.6776
70.9995 -30.3348 -40.9158
78.9221 -40.2053 -85.7762
72.5076 -21.0315 -74.2987
53.9738 -70.1802 -49.3646
34.8758 53.6089 11.9852
68.0540 -41.5919 -35.2789
63.7303 -0.8895 -39.3151
51.0558 -63.4609 -11.0080
56.2958 -94.0358 -15.7214
39.4898 3.8807 26.1522
56.5354 -87.6782 -66.4551
47.2969 -68.8702 1.7902
78.2971 -29.4058 -110.4484
59.0710 -96.7104 -21.9259
44.0127 -67.4251 16.2795
50.2337 -60.7057 -29.2197
62.3501 -42.6512 -27.8982
59.8065 -38.3989 -18.5803
34.3085 -62.4092 37.0498
58.1660 -79.9958 -39.0491
28.8447 60.1070 14.1056
62.2592 -128.1624 -30.5810
35.8459 -31.6171 29.2527
56.4952 -87.0033 -65.8294
45.1567 -10.0927 26.0565
71.5632 -17.9619 -68.7805
49.9495 33.6032 -22.1558
53.1601 9.8880 -1.5270
62.1047 18.2412 -34.0117
54.3194 4.5032 -2.0765
53.2184 26.0831 -12.4749
52.3628 -4.3331 5.8635
34.3319 31.1455 21.2933
49.2048 -83.7651 3.5079
27.6490 -42.6447 29.2169
37.5513 -88.1190 42.8183
23.2625 -34.8408 46.7807
57.1958 -107.8876 -16.5307
46.6798 -46.8818 -7.5629
26.8942 59.4866 20.6617
63.2450 -49.3583 -37.6427
19.8783 -61.8673 61.8715
59.4331 5.9946 -23.1255
50.7219 -16.0913 23.1197
46.0938 -16.7921 30.3181
57.9550 -107.7710 -53.7102
41.2870 33.1484 12.0398
47.0101 -88.2067 27.5488
48.5129 18.6881 -7.1225
40.9186 2.1384 26.0867
44.9284 -97.7840 26.7070
30.5670 -77.6293 51.2012
57.1522 -10.3513 1.5836
52.8668 -65.3238 -29.2733
49.4847 -35.6633 1.6932
56.8901 -117.0907 -36.3637
47.9512 -87.2817 17.7775
29.6365 -3.9383 50.0141
44.9875 -11.7463 29.0521
42.5472 -96.3993 32.9940
58.1685 -74.7919 -62.5659
51.2211 -98.8430 14.6633
52.0903 -92.9416 4.3061
62.3917 -103.5740 -64.3545
41.6039 -53.0468 6.8728
66.6506 9.3942 -43.4126
59.5423 -11.2394 -9.0342
60.2562 -90.5694 -50.1669
49.9592 30.7105 -11.6924
51.6975 -92.4620 16.0429
58.4347 -127.5699 -48.6054
67.8261 -8.2472 -33.0651
55.1104 -73.6803 -40.9991
39.1072 -62.8925 24.8709
48.6798 -88.0655 16.5024
51.8782 -65.2645 -37.8297
55.7020 -103.7396 -15.3268
60.9038 -105.8940 -35.5160
18.5765 -47.6804 48.3545
57.1353 -103.5795 -6.6671
41.6738 34.2610 8.6058
38.8429 -28.0648 28.5131
70.4233 -13.5513 -44.7583
39.8548 -94.4833 37.8159
73.4332 -19.9204 -59.0278
46.9203 -100.2052 22.8065
43.9699 -96.3704 28.3159
56.5967 -98.6654 -43.0835
32.2296 -13.7252 54.6523
41.3579 -96.1240 36.7339
60.2097 -101.9768 -31.4833
54.0211 -84.2417 -30.8980
77.6820 -25.8146 -105.9196
45.4454 -47.7413 -6.8160
55.6849 -18.4779 12.5211
58.7368 -126.6823 -45.2141
31.1580 -55.7391 31.0333
48.7048 -12.5388 22.2276
53.1344 -41.3360 -11.1567
77.1136 -28.7420 -64.5730
45.0428 -3.1251 26.4039
39.9938 54.7616 -4.1953
78.0466 -56.4476 -87.2144
59.3289 -10.6856 -9.9887
56.9106 -101.7305 -47.3714
52.7035 -68.4593 -42.3935
55.6064 -89.5618 -29.7795
52.8732 -86.0037 -3.4197
52.6243 -67.9956 -41.2456
67.1271 -24.6456 -18.2187
52.8719 10.7796 -3.3919
60.3257 -103.0745 -33.0025
66.5249 -21.7472 -34.2068
58.0690 25.5310 -39.5019
57.1454 -81.1813 -32.7550
43.2714 -83.4588 31.0280
65.0024 -3.5302 -45.9967
73.5615 -6.2448 -76.7768
65.7572 -70.4813 -68.9587
74.5425 -22.4151 -59.8042
57.3588 -90.0545 -63.5698
72.3027 -2.9413 -73.4532
54.2374 -81.4194 -10.2684
51.2034 -91.3524 2.1290
61.5755 -111.8687 -40.0440
78.1317 -41.2050 -92.2975
45.9040 -82.9913 12.5963
60.3678 -105.8544 -38.0966
74.1932 -40.8742 -68.2930
43.2252 -84.5876 33.7554
45.4397 -81.4815 11.8581
36.6014 -24.4131 36.5955
48.0933 -73.1089 14.5560
32.5774 20.7580 35.1560
40.3940 -97.2830 41.9545
78.1716 -33.3179 -74.7479
58.4065 -91.0156 -60.2006
61.9097 -113.2136 -41.7959
29.4614 -38.4142 31.9570
39.5375 -79.7696 33.2981
52.0685 -106.4279 7.2829
70.0368 2.4341 -59.3948
62.4095 -103.8225 -64.7398
61.8068 -20.4529 -3.7690
65.4994 -79.2634 -80.0622
56.3181 -96.0395 -39.4587
54.6891 -72.6287 -21.1878
79.9222 -28.4252 -99.3853
47.7541 -72.6728 14.8520
56.5367 -86.2890 -60.4728
48.4871 -102.7544 22.1193
43.8737 -61.5773 3.8946
18.1129 -55.9914 55.9665
47.8710 13.0247 10.9221
60.3265 -103.1857 -33.2105
24.1931 60.9928 24.6426
42.0674 -0.5240 28.7541
61.4752 -101.5800 -65.1034
58.4272 -67.2534 -53.0899
59.9472 -12.8747 -4.8793
73.8425 -25.1185 -80.4151
71.2903 -15.6068 -55.5192
39.7229 -74.6815 24.9900
54.4904 -74.8063 -51.2292
47.0627 -67.7784 -4.2039
70.8001 -15.4500 -64.2177
57.5824 -78.7035 -39.1500
40.4247 -94.7428 36.8196
55.3594 -80.3923 -29.6778
54.2850 -7.9752 9.0650
64.7902 -18.0141 -21.4838
33.7675 -60.8534 35.1100
23.8202 63.9373 19.2942
50.2193 14.3976 -2.1627
18.8369 -32.1800 57.4206
66.0240 -5.6596 -51.5761
48.9895 -59.5927 -16.3332
18.4982 -57.7779 57.9911
57.3645 -92.2656 -26.0418
52.9412 -71.4434 -17.7703
47.1999 17.8699 1.8262
33.7527 6.5894 35.6584
56.8093 -102.2427 4.1203
70.3373 -13.6270 -50.4207
57.9961 -100.5559 -39.7495
58.8767 20.2764 -22.7513
79.1251 -60.1537 -90.6484
57.8830 -123.7923 -45.1290
37.9994 -77.6485 32.8617
49.0071 -71.8674 -8.8206
63.5133 -16.3115 -12.2534
55.0133 -78.7914 -54.4276
29.3988 6.6220 43.6877
60.3757 -94.0369 -56.1836
59.9268 -107.9630 -44.3032
58.0477 -81.1980 -43.2669
22.9094 6.0801 54.0076
35.5834 -0.7470 45.1544
57.4946 -102.5601 -53.9437
54.9651 -5.4708 -5.0111
58.6816 -103.6320 -42.2154
58.3828 -121.0167 -36.1694
58.4237 -92.5893 -17.0435
52.4259 -65.0798 -21.6155
78.0211 -27.8597 -108.5600
62.8724 -43.0663 -29.2138
55.5026 -78.0933 -58.7316
66.3160 -21.1092 -27.9787
46.6729 -87.7758 27.8534
57.0826 -90.9466 -70.4130
58.7807 -112.8225 -18.5848
57.3378 -86.9491 -70.8341
77.1551 -36.6151 -87.5549
44.1780 -53.8538 -2.2781
57.8990 -101.0730 -53.2656
-33.6314 -107.1367 -62.3264
72.0244 -19.3832 -75.0524
69.9089 -13.2539 -60.5686
33.1790 -72.0519 36.3309
77.4162 -37.5295 -101.7022
55.8083 -77.0696 -26.9926
20.1844 -71.6205 58.1465
30.0188 1.0451 50.7691
56.4472 -106.2447 -16.9605
71.7660 -17.1918 -62.8153
67.7535 -9.0704 -56.2656
24.0638 -39.3303 40.0313
37.8519 -60.3478 22.7246
38.2271 -96.3809 45.9487
55.3974 -77.5386 -58.2841
56.5562 -89.1055 -23.2146
45.0576 -96.0950 26.1918
50.8521 -90.4681 -2.9019
38.9719 -62.3164 23.9742
26.8166 -80.2697 60.7345
58.4839 -94.6214 -66.6895
39.0176 -39.1987 14.9334
31.9617 60.0060 5.9830
75.3241 -31.9149 -87.2437
55.6151 -84.0553 -16.6892
36.5025 5.6043 30.4268
67.1280 -22.4151 -22.8227
61.8159 -114.2513 -46.9381
74.9893 -9.9011 -80.1680
58.3995 -90.4689 -73.6476
25.5145 -79.4216 61.4674
33.1650 -43.6202 19.2094
42.9900 -63.8163 7.5669
38.0078 25.5195 12.1272
70.9829 -16.1658 -71.1195
59.0212 -126.0621 -42.6228
53.4150 -7.3915 11.8855
72.3134 -52.9534 -56.4414
35.8198 -20.7001 42.3689
20.5503 -43.1941 41.7352
44.0239 0.7178 20.8435
61.9256 2.2863 -23.0427
55.4043 -77.9623 -61.5019
64.6629 -47.8840 -37.9647
71.1484 -59.0590 -62.5341
60.5005 -130.3791 -43.5217
69.7871 -30.5000 -25.0510
51.7936 -76.9052 -5.1671
35.8490 -9.1634 44.3099
51.5041 -91.8689 4.6833
79.0149 -52.7004 -70.1117
41.3270 -61.8027 9.9633
74.0046 -5.2118 -65.9975
19.0872 -50.5681 47.5750
52.7276 -103.7709 7.8808
41.8141 -22.6323 30.2240
42.9952 -67.3608 22.3809
55.9351 -96.8845 -44.5706
57.4696 -88.0676 -59.2321
24.6467 45.9718 28.6154
59.0076 -74.7311 -63.8182
65.9406 -20.4880 -38.8887
55.0057 -74.7224 -57.3625
47.9760 -69.8917 -0.9101
28.9815 -17.8643 56.8565
55.8058 -99.9880 -20.9364
36.0387 -21.7413 40.7504
29.1392 38.5641 32.6253
58.1531 -82.9748 -46.1309
73.2772 -22.9472 -80.4330
57.7899 -83.8099 -75.5164
75.9294 -64.3974 -76.6879
28.7802 -62.1141 48.7589
56.5785 -8.6294 -1.9181
28.6233 -66.1353 47.3559
52.7449 26.8535 -12.7542
19.9968 -39.3319 46.9532
70.8488 -42.0718 -40.1433
-33.6314 -107.1367 -62.3264
74.0075 -26.4939 -84.8402
50.2904 -105.1155 18.7025
76.3641 -45.3756 -66.7633
59.2513 -89.7520 -53.5973
27.7079 -92.3082 59.4608
52.2159 -107.6940 7.0396
39.5727 -92.3803 37.1698
57.5800 -91.8772 -72.4631
57.9642 -110.3254 -17.8711
54.4805 -92.3075 -11.6838
78.4240 -56.2716 -84.2134
63.4806 -121.4947 -52.5006
79.4988 -45.9267 -95.1953
25.5121 -94.2346 65.5995
59.3984 -118.0656 -43.3248
50.1107 -77.0502 8.9360
49.5520 -70.6352 -12.0429
60.5187 -100.0654 -55.6528
61.3577 -62.2656 -51.2877
51.2561 -75.9148 -4.3219
59.0941 -125.3230 -40.8522
48.8114 -59.4405 -14.0690
56.8869 -84.2775 -73.0916
38.7295 -64.5430 29.5513
49.1568 -87.5303 2.7024
59.2330 -116.5829 -23.5050
36.5289 -38.1348 20.2885
45.1685 -31.2184 14.5153
30.1355 38.7171 29.8695
72.3359 -35.2989 -59.8399
50.0795 -50.6704 -18.1695
76.4990 -49.1288 -76.5791
61.7380 -128.8884 -34.5481
52.0859 -93.0188 -2.6584
61.2852 -100.8982 -57.4589
58.0161 -124.6879 -46.5196
53.1241 -69.1456 -40.9548
34.6269 -6.4175 42.9898
24.9353 -95.9852 69.0294
59.2446 -81.4801 -36.0190
54.5298 -82.2286 -18.6295
46.6255 -87.4516 26.7906
53.7020 -95.9967 -5.4109
55.0255 -75.2058 -46.3988
78.7571 -57.1922 -84.6352
58.8880 -106.7069 -3.9559
59.1212 -90.5242 -44.4791
28.9529 -77.9411 54.0998
26.3224 -58.5774 47.3130
76.8512 -45.8644 -64.9330
63.0077 1.0451 -24.8762
57.2397 23.1619 -24.6063
40.0323 -52.2629 11.5186
70.1889 -28.7221 -53.1964
39.3130 -73.0994 26.7356
77.9465 -35.8427 -81.5274
54.9389 -72.3010 -21.1878
53.5841 -103.6635 6.8822
75.4365 -45.7707 -74.0323
63.2422 -15.0129 -30.3029
63.5181 -22.5647 -6.5695
35.1042 40.0397 13.7237
61.9127 1.6221 -20.3036
30.8546 -73.0573 42.4673
72.8898 -33.9163 -42.5997
74.6074 -40.7379 -63.3439
76.0235 -41.1218 -50.3204
55.3326 -71.8482 -33.6581
51.3495 -61.4063 -34.7194
52.0141 -108.3395 12.0621
62.6627 -22.9253 -4.3158
74.6976 -62.3094 -72.2154
55.3535 -77.2965 -57.9023
56.7676 -82.4710 -52.0485
71.2897 -31.2319 -49.8036
51.8815 -108.0709 14.1739
31.1262 -49.0674 29.0415
-33.6314 -107.1367 -62.3264
32.7020 -44.4001 19.8480
78.1016 -27.5060 -107.3404
54.9908 -75.6650 -57.8876
55.9086 -78.1657 -64.2158
-33.6314 -107.1367 -62.3264
59.7847 -9.6557 -16.8208
74.3651 -22.5046 -62.0965
60.1157 21.3176 -34.2641
49.9524 -73.5210 -2.9819
55.7091 -89.6641 -39.0467
59.2119 -104.7365 -41.6921
42.7586 -2.1258 30.3590
73.8282 -4.8629 -65.4854
65.1942 -19.0798 -29.3914
55.4412 -77.7802 -58.6653
59.3614 -92.8433 -58.9435
44.7981 52.2539 -13.1070
59.9772 -93.1695 -56.5080
35.6647 34.4122 22.7840
59.9182 -93.5898 -57.6023
57.3797 -90.7427 -71.0673
45.2970 2.1981 14.2466
54.1217 -96.9934 -15.4738
57.0267 -71.1188 -56.1496
24.8911 -78.2045 60.6340
27.7925 -85.3200 58.1472
60.6354 -119.9330 -22.9376
52.3695 -77.9893 -7.9855
40.5420 -51.2072 5.7711
36.4145 -60.1526 26.2602
55.5632 25.3834 -23.5678
59.9839 -51.2970 -35.0883
46.8122 -18.3781 27.2685
76.0603 -33.6179 -95.8553
40.2944 -78.1761 27.4881
60.1035 -129.4166 -43.6541
29.0953 -54.3645 33.6940
53.2787 -69.8280 -45.0777
45.6325 2.5054 12.6867
55.1382 -105.2116 -22.5269
27.7393 -62.0199 50.1967
35.1770 2.3118 41.0711
27.5539 28.6538 31.5792
78.9216 -20.9590 -88.4431
59.8374 -84.4063 -40.4978
68.6271 -25.2580 -24.2089
