# .PCD v.7 - Point Cloud Data file format
VERSION .7
FIELDS x y z
SIZE 4 4 4
TYPE F F F
COUNT 1 1 1
WIDTH 1876
HEIGHT 1
VIEWPOINT 0 0 0 1 0 0 0
POINTS 1876
DATA ascii
-2.9269 43.2622 96.3222
36.5157 -36.9193 102.0920
5.2514 53.0294 99.2700
40.8053 7.2467 99.6717
-75.3131 53.3672 112.8271
19.2033 -3.0101 99.4167
-30.1890 5.4720 100.5398
-95.6637 24.4695 104.8149
67.0363 86.7353 90.4724
-9.6946 -11.7283 103.0045
-36.5738 28.8979 101.6610
-33.9438 -36.6314 103.3842
-56.4538 3.2353 110.4498
35.5041 48.3683 99.4765
21.5645 -41.5340 102.9817
-10.0074 -23.0077 -14.6318
-45.2164 -34.8953 105.0261
-10.0074 -23.0077 -14.6318
48.0680 83.2304 96.4820
-10.0074 -23.0077 -14.6318
64.2862 59.1018 96.5425
-79.4219 -24.2389 110.8332
12.8642 55.1565 97.7940
34.3772 -12.5618 101.3173
32.8284 -30.7160 100.7273
-28.4669 -6.4436 105.4392
37.8738 -30.8936 99.1889
-77.1687 7.8197 112.3015
-10.0074 -23.0077 -14.6318
-21.6209 -31.2348 103.1743
-73.8140 -42.8164 108.6419
24.0183 -13.8458 104.1234
20.0569 -40.2668 102.6461
27.5550 -18.6118 101.7302
67.4007 37.6700 95.8557
25.1934 56.3161 96.4620
23.2974 58.9661 95.4027
-77.2764 13.1529 112.4609
-101.1296 36.9978 101.9260
-5.6386 22.5505 97.5401
-49.0415 -29.0000 103.9431
-74.6167 6.5588 111.4350
-85.7825 -39.2293 111.9244
-75.1501 17.2491 110.8657
54.9861 20.0741 98.4583
-63.9578 2.7957 109.2999
-104.1785 89.6078 98.6972
-10.0074 -23.0077 -14.6318
-65.6019 62.0294 106.7860
-86.3290 -31.4439 113.3143
-10.0074 -23.0077 -14.6318
32.2810 2.0893 101.6724
-10.0074 -23.0077 -14.6318
-10.0074 -23.0077 -14.6318
-39.2661 30.8738 101.7911
-10.0074 -23.0077 -14.6318
-11.8179 -4.3736 102.1353
-41.4765 -15.2906 104.2667
-103.2903 67.6164 103.8775
34.3659 55.1696 96.4016
-78.7981 -9.4277 113.3216
-46.0513 68.3027 105.9892
4.2164 91.7702 94.0978
21.1045 60.5501 95.2272
-3.6195 -6.2557 102.3870
-25.2427 -34.3419 101.5023
-1.1225 90.0497 94.4750
11.3164 49.8964 100.3296
32.0165 -25.6805 98.9277
62.3562 22.1000 95.3096
-81.1398 0.4964 108.6821
-18.1679 64.3780 97.9138
-10.0074 -23.0077 -14.6318
-78.0665 3.5227 108.5040
-73.2138 -35.7329 113.0405
-82.3904 -13.2749 111.8974
47.7512 73.7153 95.2558
-95.4701 -3.6808 106.0336
-10.0074 -23.0077 -14.6318
7.0598 19.2414 98.1969
26.5605 48.3130 100.0790
-47.1720 -4.2199 104.8619
-45.2181 -6.9542 103.0397
28.7040 26.6792 101.6583
-9.9395 5.6040 99.0663
-37.5593 94.9047 99.9246
-19.1431 11.4617 103.3027
36.6888 -17.2011 102.4877
-10.0074 -23.0077 -14.6318
-27.2737 -5.8902 105.1115
14.8905 2.9873 99.9811
48.2412 66.4604 98.5181
-92.2446 82.7621 104.1633
10.5058 79.8469 94.1149
25.0190 32.2075 99.3361
-52.5298 52.1410 106.2686
-66.2417 20.0155 107.1067
27.1220 39.8549 96.4291
-82.2415 -41.4129 109.9535
-94.6752 -34.3182 110.4970
11.6205 -24.7370 101.6618
-80.8587 42.9164 107.8951
9.4601 44.3080 97.5792
18.5981 -3.7778 99.8110
-98.6709 -17.3405 105.4705
-37.8660 4.1374 103.6311
-63.6726 11.6802 109.5206
50.0573 10.4267 95.4451
-10.0074 -23.0077 -14.6318
-37.4096 72.6901 101.2126
36.3902 67.4716 98.8767
-52.1530 -6.9684 104.5862
-85.8127 -34.3750 112.1911
26.3452 5.0914 103.5082
1.5849 -31.0997 105.2514
18.1058 -31.1029 104.1908
-88.1498 -47.4678 104.0928
20.9572 16.6106 98.5216
24.1078 54.4239 97.4084
-56.8272 38.7159 104.9122
-11.8549 83.3869 96.4252
-51.4674 32.1306 105.5100
7.9638 19.7280 97.9137
-47.6752 -39.5108 107.7764
-43.4355 -22.0239 107.6749
-10.0074 -23.0077 -14.6318
-37.0341 50.3593 101.6176
-27.4296 77.2978 103.4847
-75.4197 -1.4149 110.1201
-5.4988 0.4121 99.4202
14.5802 79.0498 94.3188
-26.0617 -25.4194 105.3938
-97.2944 52.3513 106.3304
-3.6330 -6.5323 102.5160
-69.3505 2.7907 108.5087
-87.5472 -5.4562 110.6576
-10.9274 89.9092 95.9643
29.8714 -18.9799 101.7101
23.2383 -40.2610 102.3419
8.2618 -36.1897 102.7342
29.8779 66.8200 99.5971
-0.3454 -37.1306 101.6889
-40.8783 27.2208 103.8332
29.7265 2.3107 101.5123
-78.5280 41.7946 108.6320
-10.0074 -23.0077 -14.6318
-10.0074 -23.0077 -14.6318
-45.0081 -20.8550 107.7456
-79.8696 32.6833 112.5325
-62.6790 -6.9370 108.2191
-10.0074 -23.0077 -14.6318
-10.9970 29.8961 101.5141
-10.0074 -23.0077 -14.6318
3.5488 -6.7941 102.1750
43.8425 -27.9735 96.4378
9.0854 51.2586 99.8430
12.0632 40.2075 96.4896
17.6214 50.8567 99.4783
-10.0074 -23.0077 -14.6318
-10.0074 -23.0077 -14.6318
2.1989 -36.8281 101.8270
-81.5778 37.6309 110.1621
22.2444 -23.6155 100.4576
-10.0074 -23.0077 -14.6318
7.0598 19.2414 98.1969
-19.8709 87.5349 97.1905
43.4550 -12.5425 98.4232
21.1434 119.3507 116.1476
44.5298 -33.4414 98.1112
-102.6809 90.7593 99.1758
-68.4113 -20.9519 107.7392
-24.1302 -37.6879 102.6746
11.8402 54.2570 98.2766
-70.9066 60.5177 109.2401
-85.2930 2.6016 107.6027
-61.0846 -26.1330 106.9493
37.0645 -31.0201 99.4976
-54.0094 97.0777 103.8798
-87.1234 84.0439 106.6427
-10.0074 -23.0077 -14.6318
-8.4407 32.0359 101.8894
-45.6450 68.1842 105.8964
5.4256 -21.4223 100.5266
-66.1601 -39.1122 112.1279
17.1074 72.2607 97.8359
-14.7848 -34.6842 101.2877
-10.0074 -23.0077 -14.6318
-85.7154 73.3554 111.8938
-14.4654 -23.7738 102.9404
-6.1332 53.0382 100.4250
-16.4082 35.4923 101.5302
35.1743 -31.5314 100.3111
-93.1170 5.1609 107.3127
-27.9933 -3.0178 103.9288
-78.1117 35.4753 111.4762
6.7515 -16.6350 100.5982
9.5929 -22.4547 100.7359
55.0068 47.0006 95.8953
35.9512 -26.4986 98.0105
21.4692 -29.4971 103.2305
14.0233 -4.1441 100.2746
-85.9617 65.7942 106.4665
-10.0074 -23.0077 -14.6318
10.4429 9.0363 102.7021
65.0304 67.2173 92.9698
-89.7127 -9.1601 112.0750
44.6486 5.6944 99.0953
-17.7654 16.4186 101.9863
-95.5886 43.0538 102.7863
-52.6841 -28.7548 105.1031
37.6043 -36.5280 101.5832
45.0395 -15.5696 99.1628
28.6983 50.7847 98.7970
-70.0821 -32.7340 112.7630
-77.9806 56.8276 111.0196
-83.8515 -17.1759 108.3038
-31.4433 96.1501 99.2192
-34.9998 37.4331 105.3971
-47.2372 92.2091 103.8135
-10.0074 -23.0077 -14.6318
-24.9098 -14.1293 100.3474
-10.0074 -23.0077 -14.6318
-102.5070 87.7754 100.7204
20.0971 -29.2683 103.2131
62.3473 85.9782 91.7911
-60.2348 -1.1111 106.3369
0.7266 36.2149 99.0437
-61.0001 -22.5416 106.4369
41.7795 -39.5254 101.4767
65.7707 59.6830 95.8398
-21.9072 122.6346 121.5054
-65.0346 9.8488 110.7366
-60.2447 66.9233 109.5738
-7.0462 -31.2871 105.2831
-32.7843 23.2471 102.6330
-96.8747 9.5656 108.2784
18.0206 -33.2832 105.2054
-10.0074 -23.0077 -14.6318
32.4622 90.8410 93.8151
-107.0672 47.0559 102.9811
21.7788 -42.2258 103.1932
-42.0678 31.9898 102.3086
-96.5893 -13.8147 109.2598
13.5523 38.6596 97.0867
40.9990 -27.9277 97.0320
-10.0074 -23.0077 -14.6318
-10.0074 -23.0077 -14.6318
50.4942 69.5146 96.5571
-15.8153 4.9262 98.8785
23.9431 7.0457 102.7575
-50.5837 84.9167 107.5743
30.0494 -39.8719 102.3064
58.0988 -4.4360 99.0095
-33.0751 60.4378 104.6859
27.6690 74.4762 96.0579
-10.0074 -23.0077 -14.6318
-27.1530 67.8759 99.6091
-12.8118 57.3554 99.4978
63.8361 44.2297 94.2726
-11.3941 85.5649 95.4192
-23.1158 -26.3063 105.3581
29.5751 16.2506 98.1348
-38.3970 34.0001 101.6622
42.4998 91.4808 93.9702
-64.8799 66.0574 108.0319
40.6789 29.1050 99.2397
31.9383 54.8832 96.6907
50.1055 -28.5399 95.6499
33.0225 89.3447 93.9796
47.1893 52.7406 95.9802
-98.3324 33.9084 105.1173
29.7800 -33.8474 102.9874
-19.3920 -30.4429 104.2865
-13.6953 125.9335 117.9326
-67.9235 104.5684 106.5780
60.4548 84.9198 92.8279
22.1985 48.7873 100.1409
24.8727 36.6397 97.2937
9.8567 1.5350 98.5141
47.5475 89.1732 93.9096
33.1273 -9.3913 100.4125
71.0109 38.5905 94.3463
-44.1488 73.2890 103.3062
43.7162 49.8326 98.2649
66.4211 79.7624 92.8369
35.5975 -4.9072 97.8174
48.4955 -31.6354 96.1157
-4.8067 -28.4245 104.4247
-10.0074 -23.0077 -14.6318
31.2228 -44.1844 101.0225
37.8820 -3.0062 97.7682
-10.0074 -23.0077 -14.6318
15.7978 20.7424 97.4370
-10.0074 -23.0077 -14.6318
-49.9136 -2.4595 106.1935
-93.6091 20.8219 104.8850
-3.8235 60.0818 96.9042
-75.4852 -30.3509 113.6588
-81.9206 4.8786 108.6960
-10.0074 -23.0077 -14.6318
-21.9352 40.0664 100.5594
44.3256 -18.4624 100.5778
-10.0074 -23.0077 -14.6318
22.4664 -36.8195 104.1958
-45.3541 10.3326 103.7073
-3.8079 78.6072 96.8043
33.9703 78.3189 94.2483
23.1638 34.0696 98.5933
-87.6817 96.5177 106.7278
59.7318 51.3036 92.8227
-66.2887 36.8127 108.7446
-77.6136 56.0639 111.3957
33.4669 49.7008 98.9911
-15.4031 36.5599 100.9005
57.1855 -3.6300 98.9668
33.7785 -13.3422 101.8281
14.6163 -15.8688 102.5204
-24.5587 -4.2763 103.9855
39.8812 -5.6457 96.9855
48.1952 87.1174 94.6492
-86.0767 44.1480 106.8121
68.6056 57.5515 95.8332
40.0936 19.6961 99.0173
40.1454 69.9604 97.4831
25.3168 10.6356 101.0073
-36.7031 -29.5408 102.6111
-10.0074 -23.0077 -14.6318
-10.0074 -23.0077 -14.6318
-88.2219 -13.3032 111.0050
-65.2470 -32.3515 110.9363
35.1613 -26.3301 98.1928
-73.0567 56.9490 111.4355
-88.5587 41.2046 107.4985
-49.7185 -20.7796 109.3313
-5.0838 37.2125 99.0536
40.7299 -23.0079 99.3431
-1.2472 87.6384 95.3649
58.8068 90.4568 92.8976
-10.0074 -23.0077 -14.6318
-66.1365 13.1853 109.7630
-8.1454 -17.2462 99.6889
0.4441 -12.2782 103.9644
33.5017 11.0711 100.2806
59.3001 7.6282 93.6787
-7.6414 -9.3573 104.0821
-106.4827 39.0766 97.9128
-87.5472 -5.4562 110.6576
6.7010 3.1023 99.0689
20.9669 -35.6577 105.1205
-16.2752 -4.1067 102.6815
-78.1516 101.7277 106.9310
-10.0074 -23.0077 -14.6318
-10.0074 -23.0077 -14.6318
7.0520 -17.8682 99.8867
-10.0074 -23.0077 -14.6318
-4.1392 0.0554 99.4979
-10.0074 -23.0077 -14.6318
-10.0074 -23.0077 -14.6318
-19.8415 -7.3022 104.6456
-47.1746 2.7211 107.4434
-10.0074 -23.0077 -14.6318
-10.0074 -23.0077 -14.6318
-29.2120 15.7288 104.4300
12.3037 86.7003 95.1576
16.5716 12.7556 100.5869
-55.6541 10.9889 107.0211
37.7630 76.2868 94.5239
-79.7351 29.0459 111.6812
-63.3480 21.3165 106.8129
-29.9353 -35.7487 102.4971
33.7600 -38.9014 103.7870
-10.0074 -23.0077 -14.6318
39.1985 -18.0049 102.0200
-93.8193 1.8350 104.8839
-28.9037 28.1535 99.3251
45.4386 -13.2473 98.0833
25.1717 -41.2737 102.0703
-64.0626 3.6847 110.1620
-27.5069 10.9400 101.5479
32.9467 -7.3232 99.6205
-29.7777 91.7706 98.5537
21.9692 -23.5724 100.4554
18.0746 -15.2841 103.6102
-70.8783 -5.0259 110.2825
-10.0074 -23.0077 -14.6318
-36.7031 -29.5408 102.6111
37.3627 -14.9175 101.3356
-10.0074 -23.0077 -14.6318
-10.0074 -23.0077 -14.6318
7.7165 -23.1038 101.1574
-10.0074 -23.0077 -14.6318
24.2237 -22.7566 99.9325
38.5804 38.8173 96.7978
-95.9436 -20.7861 104.6591
13.7113 46.9300 100.7978
-10.0074 -23.0077 -14.6318
18.5474 9.5073 101.9640
-90.6597 39.4384 107.0824
44.0097 32.6402 96.7383
-18.1751 27.4923 98.3621
15.0780 53.1664 98.5730
50.0225 -2.8806 99.3957
8.7485 35.7279 98.7529
15.8294 33.2916 99.4253
-40.2757 -31.8535 102.3369
-60.2868 -18.6359 109.8812
16.4339 -20.4368 99.7158
17.3933 -37.3446 103.0220
-32.4783 -20.7424 104.2378
-60.3674 58.0305 106.5948
34.6015 34.1236 97.8327
-24.7528 -21.5529 103.4629
13.1007 76.0469 96.0182
-64.8168 -31.6021 110.4822
3.0050 -22.8997 101.3666
47.6803 -42.8157 100.9381
-23.5825 60.7101 101.2828
25.9030 74.4817 96.1527
-76.8523 4.8960 109.4621
-3.2756 30.1288 102.1192
-10.0474 77.7513 98.2483
-91.9524 47.3618 106.7572
17.7852 -20.6204 99.7184
-35.4650 -12.3812 101.1464
-89.3640 47.2230 107.0038
5.7231 37.3543 98.1946
4.9111 17.1954 99.2814
-23.4384 56.6402 102.8874
19.6434 -26.7694 102.0854
21.5535 8.6853 102.1518
-10.0074 -23.0077 -14.6318
-26.3972 90.7115 97.9477
31.4000 -41.3977 101.4047
15.2565 -27.6092 102.7570
-84.6917 -33.7786 112.6711
-63.1409 79.0182 107.5673
20.7663 11.8626 100.7312
-4.1143 60.7605 96.6431
-50.7117 -27.6081 104.2113
-10.0074 -23.0077 -14.6318
-37.4445 25.4600 103.3543
-40.9155 56.6184 102.3331
-35.9897 8.8230 101.0669
0.3077 -19.2480 99.8499
56.5182 33.9845 94.3648
-56.3304 -32.1094 107.7489
-9.9086 39.7726 98.6300
-55.8523 -20.2975 108.8980
46.1157 30.1552 97.0988
16.1181 80.8562 94.0169
-26.6516 -21.2619 103.6121
23.9366 -37.9842 103.2638
-8.0905 124.5021 117.0616
26.9123 38.3902 96.4930
43.1790 -23.8605 98.8644
27.9080 31.4651 99.4939
39.9795 27.6665 100.0514
-38.7202 0.4194 105.4451
-10.0074 -23.0077 -14.6318
-20.1406 -30.7058 103.9160
-10.0074 -23.0077 -14.6318
57.6839 64.2337 96.4888
-10.0074 -23.0077 -14.6318
-25.7123 67.8190 99.1326
-96.3923 50.2574 107.8901
-21.4657 -15.8845 100.4256
-54.0886 54.2648 105.9466
-10.0074 -23.0077 -14.6318
-34.3279 46.4947 102.2484
-0.2223 -30.6206 105.1459
-87.6475 21.7056 107.5994
-98.5421 45.9192 104.3563
-34.4666 16.6977 105.8594
-43.6426 -13.5337 104.3046
-56.4779 39.4043 104.7677
-10.0074 -23.0077 -14.6318
19.2248 38.9629 96.5814
-90.6135 4.9346 107.4604
40.6821 -34.0658 99.5882
-23.6565 14.0641 103.9267
-10.0074 -23.0077 -14.6318
23.6746 0.0746 98.8498
-54.9405 -18.8272 110.3634
-16.0999 58.1598 99.7244
-78.4870 35.8296 111.2803
-10.0074 -23.0077 -14.6318
-34.9448 4.1852 102.5958
26.9788 -18.5226 101.7328
-4.1824 7.0513 101.1662
-10.0074 -23.0077 -14.6318
-54.3529 30.0729 107.3469
10.8264 -24.6367 101.6665
-8.5669 72.9351 100.1800
3.0043 -16.2986 100.3753
4.3346 22.6207 97.3715
-3.6774 74.3937 98.7778
-21.9870 53.2988 101.7939
-1.8857 128.1772 115.3847
-10.0074 -23.0077 -14.6318
8.4633 11.1429 101.8538
-7.9226 -35.6088 101.4750
53.1752 4.4814 96.8995
24.8063 -19.1854 100.7565
-30.2205 9.7042 100.2166
40.9232 -4.1697 97.1388
42.7126 -31.4172 97.8645
9.8592 32.7661 100.0528
-95.2233 75.7551 105.7542
-9.3218 -30.2741 105.5702
-55.7880 -23.9823 105.6078
-27.3746 79.3959 102.9726
-29.0052 19.7660 102.7289
-10.0074 -23.0077 -14.6318
-26.0735 -28.1220 105.5874
-95.3267 34.0565 106.8644
-10.0074 -23.0077 -14.6318
-38.9753 -30.2555 102.1620
-27.1544 1.4322 101.8074
-67.1882 91.5670 110.6174
-91.4390 19.4693 106.7689
-55.1905 37.6762 104.6236
17.1825 12.9877 100.4402
-13.4160 80.4298 98.1358
19.2754 -19.0217 100.2544
-8.9527 -32.5408 103.7627
1.3798 -11.6919 104.5828
18.1166 27.6197 101.9042
-63.7482 18.0898 106.9384
-0.2629 -33.2510 104.3497
-12.2546 55.3656 100.3071
38.5101 53.8161 96.7609
15.6168 41.1230 96.3083
-58.8925 -26.5457 106.3561
-10.0074 -23.0077 -14.6318
-51.0422 -12.7251 106.5396
21.1699 6.7242 103.0843
-26.3329 -4.7785 104.4733
-15.7725 71.1013 99.0952
-4.4805 -21.7029 101.2950
-26.7744 -28.7004 104.9125
-10.0074 -23.0077 -14.6318
-26.7329 13.6565 104.3445
-16.9624 4.1262 99.0754
19.8354 88.6657 94.1650
-105.6326 57.8312 98.6253
-4.8840 1.7117 98.7790
25.1908 41.3841 97.0621
-10.0074 -23.0077 -14.6318
7.1855 73.5892 97.6695
-69.7727 -15.2332 111.8344
36.8681 19.6827 98.5259
-95.9921 51.0686 107.7395
61.2565 20.0433 96.5000
-10.8319 -34.5968 101.7125
-103.1857 11.1780 103.6741
2.5409 28.8882 102.3193
25.6826 -8.8232 101.6913
70.9480 37.2287 94.9266
-87.7350 13.7749 111.1086
-89.2200 -36.5697 111.5502
-10.0074 -23.0077 -14.6318
-6.6190 31.2727 101.9594
-33.8153 -19.2947 103.7842
48.9576 -33.6505 96.7893
-46.9905 97.2193 101.7474
-15.5955 10.1501 102.5337
24.9335 -25.8373 101.2524
-91.6959 -39.3831 111.4581
-5.0520 31.6958 101.5326
-10.0074 -23.0077 -14.6318
-28.9419 -31.2599 102.1775
61.8220 45.8322 94.2440
-40.8374 -1.8260 107.0946
44.1560 57.3724 95.2751
-16.5705 -4.3685 102.8436
-31.0183 -31.0327 102.1699
-26.0429 54.2519 102.1337
-34.9614 41.2179 104.6098
14.5531 -5.0278 100.6496
58.3690 8.0953 93.7807
21.9758 -13.5770 104.1303
-10.0074 -23.0077 -14.6318
-10.0074 -23.0077 -14.6318
60.8013 -1.2430 96.8425
2.3341 18.4647 98.8597
12.6044 17.7626 98.5250
56.1513 -17.7387 96.5278
48.1435 74.0935 95.0555
-10.0074 -23.0077 -14.6318
36.4165 9.1625 100.2712
36.7620 -9.7644 99.4101
30.2160 -11.8113 102.3320
36.2622 49.9591 98.6912
-40.3323 1.4018 105.6048
-27.5885 -1.0598 102.9901
-88.0686 -41.9721 109.2794
-24.0166 -18.0955 101.7983
-2.1785 39.8729 97.5370
-2.4953 124.6353 115.5269
-10.0074 -23.0077 -14.6318
-4.7385 80.5088 96.0571
-8.1838 80.3630 96.7927
-3.4985 31.8725 101.3262
-51.1358 75.8751 104.6798
-6.1932 -8.0389 103.3784
-46.4409 9.8456 104.2839
-10.0074 -23.0077 -14.6318
-10.0074 -23.0077 -14.6318
-51.7363 13.0590 104.8142
-10.0074 -23.0077 -14.6318
10.7271 -26.9901 102.7625
-87.9798 -22.3743 109.1205
42.7398 -23.0709 99.5788
47.4727 44.6371 99.2275
-14.1571 11.0204 103.6061
54.9621 -6.1957 96.8550
-10.0074 -23.0077 -14.6318
-22.6903 3.3999 100.2591
-50.1935 20.5359 107.6587
-104.8113 66.6233 102.6717
19.6637 7.1432 102.9870
56.0860 68.1247 95.3847
32.9746 -27.6826 99.4384
-72.3030 -27.4536 111.3782
-85.3630 42.3345 107.6888
-31.6267 -4.0375 104.9897
56.6310 -1.9717 98.4602
69.7399 50.1875 91.4351
-79.8536 53.1822 112.4421
28.1872 89.0281 94.0514
-10.0074 -23.0077 -14.6318
46.2089 6.6164 98.2230
-57.4030 -9.4150 107.3985
-10.0074 -23.0077 -14.6318
-10.0074 -23.0077 -14.6318
-37.3476 97.6025 100.2994
-65.7367 -34.1619 111.8434
-10.0074 -23.0077 -14.6318
-10.0074 -23.0077 -14.6318
0.6023 -4.6261 101.3607
-81.2224 -13.9462 111.4078
36.4052 53.8414 96.8850
-31.0791 88.9500 100.0791
61.9609 56.1266 95.8337
-98.8093 14.0565 104.9290
15.5310 55.9934 97.2345
32.3278 -39.1857 103.3215
45.7232 -31.5448 96.9598
-30.7153 -6.4822 105.0677
61.5240 25.7217 94.0864
-64.1107 55.3981 108.9625
-109.0947 68.8066 100.7218
14.9819 50.9715 99.5955
-30.8814 27.9097 100.0894
17.8896 37.2685 97.4517
20.6917 28.3401 101.4049
-56.8263 -28.2537 106.3384
-41.9789 19.7808 107.2174
-8.1448 37.8273 99.2393
-29.3275 26.1908 100.2473
-8.9716 -32.8123 103.4919
-44.7270 57.9621 103.0951
-50.6267 12.9445 104.4750
-104.2519 95.9746 98.3257
34.2029 32.3420 98.6831
64.9679 30.1944 92.3257
-92.4221 -30.0340 111.1335
-34.5009 22.6249 103.4789
-56.4022 23.6736 109.8360
36.1161 55.4739 96.1478
54.0081 61.7235 98.6697
31.3101 84.9038 95.8391
38.2135 -29.4284 98.4844
-6.5216 51.8239 101.0293
-46.5419 43.0014 107.9023
-14.6406 -5.0334 102.8546
-10.0074 -23.0077 -14.6318
-4.6900 38.9176 98.2264
-53.1475 -21.7429 107.8720
50.5974 -15.2524 97.2697
12.3050 73.0632 97.6695
65.2132 28.8735 92.0136
24.5830 -14.5134 104.3962
-65.3379 -11.4902 110.9898
-108.5067 51.7223 99.8479
-84.0509 -29.9466 112.8866
-82.4535 83.7866 107.6091
-10.0074 -23.0077 -14.6318
38.9540 33.3331 97.9187
-51.4835 -25.1743 104.9205
38.6251 -12.1802 99.8100
-82.4173 -43.9464 107.5591
13.0638 7.7022 103.1516
-1.1608 35.4691 99.5104
-10.0074 -23.0077 -14.6318
22.7022 -9.8905 102.3769
15.6909 -19.7578 99.6367
58.7853 16.9475 98.5504
-86.0487 -6.0032 111.0548
71.3447 84.9730 89.5325
-87.1244 1.4012 107.6628
-17.9969 -20.7769 102.1142
65.7902 48.4770 91.9214
-77.2110 -1.2127 109.8454
0.6152 -4.3524 101.2331
-25.8494 3.8490 100.5293
-0.1200 121.1295 116.3900
-7.3235 35.7013 100.0725
-48.6533 -5.3592 103.9344
-75.8032 79.4904 110.1994
37.8522 8.0395 100.2792
56.6697 87.9563 93.0654
-93.3637 -16.3479 107.2370
2.8677 35.7920 99.1017
-45.5412 -12.0611 104.3652
-9.5524 56.6216 99.3336
47.9269 -15.8839 98.3738
-11.3822 41.4047 98.1179
-82.1933 40.8271 108.6830
59.3431 61.4726 97.1084
-10.0074 -23.0077 -14.6318
17.7253 26.4282 102.3479
-110.7659 88.5130 94.8841
-6.1432 -14.7430 100.5546
13.1583 -17.6265 100.5689
4.1594 -37.3533 101.8347
-19.9209 79.5535 100.5163
-89.4828 8.1828 110.8347
-24.3487 44.8763 99.4443
6.3945 -23.2469 101.3088
-53.1711 55.7715 105.0163
1.2043 33.2986 100.3632
-12.9798 122.7594 119.0941
42.9989 24.7334 100.3091
72.0345 49.7605 91.2056
-12.2274 19.8250 99.6253
-10.5768 23.2492 97.8426
-77.5742 -22.5949 110.2954
-10.0074 -23.0077 -14.6318
9.8699 61.0753 95.3377
53.1713 89.3251 93.8541
-13.0134 -5.9649 103.0309
-6.3690 75.4553 98.7141
-46.9166 61.7614 106.4534
-71.8839 -38.7146 112.7370
20.7126 2.1879 100.0549
17.4475 26.7857 102.3334
41.4951 47.9150 99.2997
-10.0074 -23.0077 -14.6318
-33.7731 89.7956 100.5638
7.1066 -17.5758 100.0406
-17.9499 -24.8566 103.9435
34.8859 8.2360 101.1359
-7.7079 5.5195 99.1776
3.4094 73.1022 98.1408
-71.6236 56.2080 111.2394
-10.0074 -23.0077 -14.6318
-24.0609 37.4522 102.3577
-10.0074 -23.0077 -14.6318
-10.0074 -23.0077 -14.6318
66.1207 40.5482 95.0716
-7.8957 36.6347 99.7386
62.6427 48.4788 92.9028
11.9319 -36.4445 103.0045
39.6252 43.0572 100.8156
34.3659 -44.6354 100.5083
-6.8132 -3.8452 101.4762
-6.6337 -5.7840 102.3625
-101.3019 29.4981 105.4561
38.2309 -8.5782 98.4565
42.1882 -46.7568 99.1941
-19.7374 -33.4557 101.5979
-8.2929 34.9294 100.5664
-65.1690 52.7647 110.3993
-6.1361 40.8239 97.5867
-32.7865 11.2793 101.1003
13.4697 92.4940 94.2206
2.5423 24.8470 98.5363
66.2050 82.6585 91.7645
-7.8910 -32.0619 104.3929
-50.8703 39.5597 105.1441
-41.4637 29.7490 103.0102
-10.0074 -23.0077 -14.6318
-75.9140 86.6498 107.2732
-23.5837 67.5700 98.4956
-81.0778 -40.0899 111.2309
-59.6412 -24.3667 106.0076
-20.1055 17.7315 101.7475
-70.0989 76.0369 111.1890
-10.0074 -23.0077 -14.6318
-10.0074 -23.0077 -14.6318
-10.0074 -23.0077 -14.6318
-10.0074 -23.0077 -14.6318
55.3537 27.8746 95.1368
30.4054 50.7382 98.7084
-85.3638 -17.0192 108.1833
-52.5379 34.2364 105.0249
10.5127 17.3580 98.8465
-84.9138 -41.2636 110.0271
-78.9766 -28.3934 112.7256
-10.0074 -23.0077 -14.6318
21.0432 18.5652 97.6450
-10.0074 -23.0077 -14.6318
48.3730 -12.6639 96.9158
-65.0876 -18.4506 109.3525
-39.5827 -26.7590 104.9306
0.8312 -13.2844 103.0284
-106.4290 51.2863 101.3181
-42.1908 14.2848 102.8082
-86.5737 81.2599 108.3025
-24.3981 -9.8301 102.6990
36.0755 17.5740 97.3989
-60.8622 20.3339 106.2617
-70.1319 49.1051 111.7126
-105.6851 93.7047 97.2669
-88.7554 -12.0673 112.1461
-2.9852 42.2488 96.4888
-10.0074 -23.0077 -14.6318
-67.9626 -23.9023 108.4263
3.4078 22.0553 97.4628
-10.0074 -23.0077 -14.6318
-30.1866 -31.5767 101.9395
-14.4527 -1.4576 101.2156
15.8435 -17.3105 101.2789
-10.0074 -23.0077 -14.6318
63.9315 38.7861 96.4825
35.3351 53.2078 97.2473
24.1854 48.0826 100.3389
-4.0582 -29.0837 104.6815
19.8466 11.6555 100.8861
13.6505 -27.3811 102.7550
-55.4969 67.6929 109.5131
-10.0074 -23.0077 -14.6318
26.9051 11.6388 100.4410
-54.8530 -2.3881 105.5843
0.1114 36.2539 99.0652
-19.8515 58.4224 100.9188
-50.4020 -20.4988 109.4693
22.3274 72.1602 97.6011
-17.0166 -22.2437 102.6293
-22.2076 77.9521 101.9205
-73.7798 85.0611 107.9420
-23.2460 40.3373 100.9041
11.7840 60.2960 95.4833
-67.5449 -30.9595 111.1630
44.2593 55.0992 95.7961
27.8052 -15.5668 104.6409
62.4173 43.7175 94.9265
-1.5048 28.9271 101.9645
12.1494 126.0147 115.0821
41.9621 29.5307 98.6613
55.7671 22.7815 97.0989
-40.6734 -38.8716 105.4301
-107.4008 72.2809 100.0648
-10.0074 -23.0077 -14.6318
40.4244 -10.1675 98.4117
-41.1777 -37.6288 105.0108
-10.0074 -23.0077 -14.6318
-77.3408 41.7644 108.7677
-10.0074 -23.0077 -14.6318
38.5930 -18.7998 102.5389
9.9671 5.7225 101.9517
54.2875 15.5763 97.0540
8.3543 15.3062 99.9343
-10.0074 -23.0077 -14.6318
-54.4098 20.3862 106.8859
-26.8725 7.8548 99.4244
-10.0074 -23.0077 -14.6318
28.4399 66.4945 99.8403
-9.4787 -36.9651 101.4330
-64.8024 -37.1506 112.1416
-91.2587 40.4006 106.2539
24.2786 -19.7445 100.2768
-10.0074 -23.0077 -14.6318
-23.8121 42.2937 100.3063
-8.9461 72.2862 100.5288
-11.0994 77.6196 98.5830
16.4853 -13.4833 104.4403
-11.5234 1.3313 99.5212
-56.9403 0.3089 107.8850
-46.9759 -20.3236 108.2117
-10.0074 -23.0077 -14.6318
18.9242 -10.0122 102.6761
29.7874 29.2880 100.3809
-10.0074 -23.0077 -14.6318
-24.5860 46.7909 98.7493
-17.1237 17.2025 101.5376
-10.0074 -23.0077 -14.6318
10.7690 77.8045 95.2006
60.9582 52.0487 92.5021
-10.0074 -23.0077 -14.6318
7.4605 -28.9914 103.8989
-13.0229 59.6366 98.5051
40.2080 51.8385 97.5667
-56.3699 -2.8027 105.3912
-22.5153 -32.5985 101.8734
-91.2204 -16.8008 107.2661
33.6916 36.5627 96.7621
-10.0074 -23.0077 -14.6318
3.2669 31.1493 101.2256
-43.3775 43.9735 106.4103
-92.1204 57.3137 107.0584
-10.0074 -23.0077 -14.6318
14.1802 61.3931 95.2275
-12.7675 64.4879 96.2865
-32.7786 86.3125 101.7000
-59.9926 90.3760 108.7908
-60.2411 27.7556 110.3252
31.7816 -39.0609 103.3638
44.5535 -19.7426 101.0311
-1.6070 74.7990 98.2208
65.1499 42.3681 94.6264
22.1760 -8.3944 101.7182
32.1895 70.9976 97.5145
-10.0074 -23.0077 -14.6318
11.9127 71.7490 98.3990
31.8100 8.3339 101.6564
-45.1522 -39.4618 106.8785
-39.3160 8.0084 102.5559
5.0645 62.4005 95.2411
-63.4731 31.5919 109.8910
-34.0428 -13.2393 101.1553
-40.3450 7.5266 103.1103
-10.0074 -23.0077 -14.6318
-44.0922 -37.0106 105.5034
-10.0074 -23.0077 -14.6318
49.0929 -30.8548 95.6081
54.5966 83.5992 95.3952
33.1745 17.4890 97.5919
48.4781 83.6457 96.2827
-108.2551 93.7663 96.4001
-55.8412 43.5672 108.3636
-84.8526 7.6050 110.9507
37.9641 10.3789 99.2819
-10.0074 -23.0077 -14.6318
-56.7548 -26.9610 105.7829
10.2616 27.8193 102.3173
-97.5346 6.2256 107.7090
-90.3049 25.0241 106.6559
-74.3319 -11.8127 114.2356
-2.4721 -11.1127 104.5624
-10.0074 -23.0077 -14.6318
26.8146 54.6704 97.1197
-10.0074 -23.0077 -14.6318
-89.3253 57.7775 108.5250
56.3001 65.1275 96.5524
-6.2043 22.8885 97.5045
22.0151 29.4342 100.8132
72.6514 56.7827 94.8875
-20.6611 32.8650 103.0127
-51.2555 45.0164 108.7192
-3.6532 -38.3093 101.8457
70.1106 58.1400 95.1212
-85.5126 33.0630 111.7803
-23.5435 48.6487 98.0957
24.3405 31.3601 99.7720
18.5793 31.0951 100.2653
-82.5299 75.1428 111.4308
-33.5642 -28.5525 104.0521
44.0907 -3.4270 97.9770
-3.7332 28.2432 100.9590
-27.2515 47.7175 99.2975
24.0286 85.7646 95.4968
-31.3493 -10.5625 101.1519
-14.6832 38.2452 100.0361
60.7273 4.0141 94.7104
29.1752 -2.9927 98.7857
65.8653 42.6243 94.2976
-10.0074 -23.0077 -14.6318
-34.6720 25.9048 102.2143
-87.2882 -42.9007 108.4230
-19.8055 81.7748 99.5593
28.2215 -12.6506 103.2999
-10.0074 -23.0077 -14.6318
36.1555 30.7458 99.2965
-26.5284 -34.9754 101.7325
69.9665 62.9989 93.1653
-86.2932 -42.3045 109.0105
53.3669 48.2214 95.9063
27.4747 59.7886 95.2252
-53.5098 99.1962 103.0513
42.3763 88.2264 94.1770
38.2728 -7.7125 98.0893
7.1842 59.5549 96.1232
27.4588 -0.6384 98.7818
-99.0995 -7.5054 105.6876
-87.0958 34.1441 111.1381
12.2887 -5.0820 100.8203
-11.1327 40.2014 98.6219
-91.5378 -29.8429 111.5761
-38.3290 28.6029 102.3895
61.0054 43.2111 95.5771
25.2951 -37.0741 104.3637
-74.3053 56.6531 111.4749
17.9142 37.8529 97.1796
33.6332 44.9085 101.1985
70.7405 86.0072 89.5385
64.5915 29.3097 92.1034
-10.0074 -23.0077 -14.6318
-33.7545 23.9863 102.6708
21.9042 -32.6884 104.6799
-102.5479 15.7907 101.8268
-104.9152 47.7695 103.9377
3.4222 -19.5262 99.8066
30.9859 -30.6443 101.2875
-49.7601 34.9828 103.7585
53.4355 42.4985 98.2408
40.4831 91.1534 93.8812
-100.3803 38.1876 101.8028
-14.2930 39.6735 99.3366
30.9952 3.5045 102.8790
-41.9534 9.1266 103.0168
37.2551 90.1853 93.8427
34.4474 39.1368 96.6367
-10.0074 -23.0077 -14.6318
18.6551 51.7584 98.9943
-55.5388 13.1380 106.1042
57.8013 17.1063 98.7944
-95.4912 -8.5158 108.3618
-61.2372 -9.4626 108.7458
22.7075 -21.3355 99.7343
30.3005 56.8545 95.8833
13.2592 5.5580 102.2773
26.1231 7.4198 102.4444
52.1622 86.2771 95.0107
51.6843 83.8946 96.1376
-19.0469 53.9329 102.4648
22.3639 13.7042 99.7761
-10.0074 -23.0077 -14.6318
-38.2718 -14.0975 102.6731
-24.6769 -1.1836 102.6149
9.1779 60.4146 95.5964
-19.6494 40.2842 99.8640
-10.0074 -23.0077 -14.6318
-50.1271 94.8554 103.5910
13.9861 -32.3314 105.0244
24.2170 6.1591 103.1504
-92.9846 76.9295 106.5406
44.3181 -2.6046 98.8226
-18.1659 26.3288 97.9938
9.5644 40.0389 96.7047
-62.9271 96.9366 106.9091
-11.8805 -35.9476 101.2309
-42.7419 7.1566 104.0948
34.7952 48.0655 99.6623
39.6667 27.7141 100.1301
-23.9860 45.4142 99.1001
-10.0074 -23.0077 -14.6318
-71.9649 20.0207 109.0058
-10.0074 -23.0077 -14.6318
-10.0074 -23.0077 -14.6318
9.8387 4.0824 100.3134
-76.8118 -21.4658 109.8732
17.7424 23.4530 99.4132
-91.3280 11.6001 110.6522
-16.6137 37.5749 100.6259
-96.8186 54.2996 105.6750
-96.7570 45.8189 104.5218
-68.9027 -35.3820 113.2669
-16.7866 -27.8711 105.1281
-95.7309 -31.5116 109.8471
13.8452 1.2461 98.6788
58.4264 87.2872 92.6670
52.6656 26.0701 96.7207
-10.0074 -23.0077 -14.6318
5.8431 11.8906 101.6757
-10.0074 -23.0077 -14.6318
67.0964 78.4775 93.1240
-71.9083 68.4451 109.3473
38.6142 5.2443 101.1876
12.4897 78.0883 94.9525
-15.4698 92.3532 96.3177
9.0323 57.2358 97.0781
5.9281 28.3832 102.3351
-99.9743 80.3070 100.6742
47.9972 41.5750 100.3239
9.7807 52.1603 99.3805
55.0734 85.9853 94.2592
61.8539 72.7367 92.1473
34.9391 58.3146 95.2991
4.0694 -28.3071 103.8002
45.2515 -11.1247 97.2748
-72.7301 -42.9415 108.5509
-73.6201 73.2903 113.1676
19.3361 -27.6244 102.5011
-53.4973 -37.3836 108.9272
52.2108 68.5654 96.4124
-39.5641 11.2760 101.6404
-32.3925 -19.2692 103.5630
-85.3594 -27.6399 111.7254
12.7887 -28.7701 103.4536
-72.0199 -10.0321 112.7117
48.0494 -40.8970 100.0329
-97.4742 10.1506 107.6315
4.2599 123.9556 114.5085
-10.0074 -23.0077 -14.6318
-97.8374 14.2318 105.4324
-26.9403 0.0318 102.4042
-11.8389 8.8452 101.8023
-46.6363 21.9503 107.9553
-51.7362 6.0617 107.6669
-10.0074 -23.0077 -14.6318
-10.0074 -23.0077 -14.6318
-79.0141 100.8055 107.0603
56.2116 87.0801 93.4252
18.5082 -27.7966 102.6342
26.7802 69.2948 98.6506
-34.9911 47.6094 102.0259
-12.7083 6.7809 99.6355
-10.0074 -23.0077 -14.6318
48.5279 -36.7449 98.1857
-20.9811 -33.4420 101.5302
3.2474 19.2237 98.4499
35.3110 52.5605 97.5485
-4.0038 -32.0779 104.9533
-10.0074 -23.0077 -14.6318
13.7979 21.5505 97.5495
-85.6699 0.1613 108.3625
-10.0074 -23.0077 -14.6318
48.3304 41.5286 100.2386
2.3326 -3.1153 100.5497
-71.9565 42.7808 108.2831
-92.6434 54.6050 108.0534
-10.0074 -23.0077 -14.6318
-82.0981 87.9657 106.5396
-7.2206 63.7427 95.7751
-10.0074 -23.0077 -14.6318
7.8545 45.9973 99.0089
-10.0074 -23.0077 -14.6318
-5.3709 16.2328 100.3869
14.1202 63.1795 95.8225
19.7840 37.1747 97.3733
-29.2087 -22.4650 104.5300
-33.3754 61.9052 104.1936
57.9185 61.6325 97.4870
-17.2277 15.2563 102.4289
-14.3008 -9.9375 104.0896
-39.4116 -0.1260 105.9080
37.9575 -44.6029 99.9521
16.5054 -30.2314 103.8905
-52.2702 3.0140 109.0901
52.6410 -0.2820 99.0265
-24.9330 89.8498 97.8306
-10.9117 -25.6787 103.5470
-33.1234 87.2064 101.4362
-10.0074 -23.0077 -14.6318
-34.1255 -4.5153 105.8608
-10.0074 -23.0077 -14.6318
-77.7594 60.5631 109.3874
-60.9192 62.6179 105.7909
-15.8160 57.1076 100.0642
-69.1710 46.3863 109.1710
-0.2378 -10.7090 104.2317
-68.4313 21.3086 107.4958
55.9459 72.6632 93.5610
39.1519 -25.0195 97.5642
44.7375 1.1788 100.9239
-22.8293 -4.3463 103.7610
-10.0074 -23.0077 -14.6318
-106.3193 59.7432 97.5227
-10.0074 -23.0077 -14.6318
-74.5405 14.9263 111.9579
-107.6065 60.5970 96.9267
5.4256 -21.4223 100.5266
-10.0074 -23.0077 -14.6318
-15.5230 -5.8211 103.3414
-17.7248 86.9161 96.7821
39.3161 13.6806 97.4972
-86.9411 -13.5358 110.9653
39.0222 -34.9381 100.4772
-45.6110 45.7842 106.4500
-19.0179 -2.5707 102.3997
-10.0074 -23.0077 -14.6318
1.9439 22.1359 97.4753
-24.9008 -24.2107 104.6794
33.1224 -42.1147 101.0386
-79.4924 -8.8093 112.9758
-24.4899 12.3150 103.3526
-77.2117 -7.2378 112.5151
8.8796 38.6222 97.4046
-25.8451 -21.5528 103.6239
-82.7836 10.8817 112.9013
-21.5124 -32.6028 101.9314
19.1813 -3.5616 99.6734
-5.6685 37.8559 98.8523
-32.6471 -37.1723 103.4729
-82.5733 23.2425 107.7434
-43.5129 83.4272 106.4692
-10.0074 -23.0077 -14.6318
52.3460 89.2232 93.8726
54.6226 -24.6004 99.8249
19.7588 -20.3125 99.6446
-4.8325 120.7554 117.7939
-60.0177 -21.0774 107.5107
64.1622 49.7640 92.0457
36.0776 14.4961 98.1853
-10.0074 -23.0077 -14.6318
-20.6017 25.3128 98.4257
26.7160 -26.7611 101.0609
-28.0437 -32.6519 101.5134
-112.6175 65.4897 100.1959
-40.8457 -5.7419 104.2970
-3.7874 27.6331 100.3487
-13.5211 -15.2951 99.6152
47.1775 -6.9637 95.6297
-51.5330 -24.2222 105.6637
-23.0006 -7.4628 105.1851
-10.0074 -23.0077 -14.6318
-10.0074 -23.0077 -14.6318
-28.6147 -16.9278 101.9533
53.5299 44.4952 97.3892
-74.2323 -42.2223 109.2144
-88.7515 44.4306 105.9955
-80.2328 -20.2193 108.9663
-50.1532 -4.3660 104.4821
-44.7773 1.3746 107.1596
-30.3709 -6.8280 104.7775
-27.6878 -20.0977 103.2417
-2.3417 63.6326 95.3764
10.0930 51.8315 99.5126
26.9170 -28.0106 101.5092
-52.4912 -13.3699 107.3028
32.1656 1.2435 100.8202
-20.1427 59.4968 100.5830
41.7284 44.3498 100.9349
48.7219 92.5981 94.2760
-3.4553 -12.3577 103.3079
5.2161 17.4489 99.1446
-53.7912 25.4924 109.0043
-46.1436 89.0120 104.8661
-12.6774 59.9139 98.3282
20.1278 30.1293 100.6128
26.7237 67.9066 99.2969
-19.0591 45.2796 97.5331
7.7881 71.5770 98.7200
-26.3790 91.1202 97.7950
-35.3986 1.6458 103.7897
66.8045 33.9915 95.8943
19.0230 120.2627 115.7295
-15.8652 91.6107 96.6644
-10.0074 -23.0077 -14.6318
-51.4897 -6.0420 104.2313
33.0627 76.5552 94.6395
-82.5059 75.5480 111.2540
-3.4985 31.8725 101.3262
-13.4752 -9.6250 104.5205
58.0160 45.6113 95.5250
-38.5453 75.1259 101.0120
2.4277 3.0109 98.6865
-0.3011 18.3663 99.0744
23.8245 3.6273 101.9373
1.6318 -0.3505 99.3149
-12.2196 30.4942 101.9234
38.7094 13.4860 97.7688
3.4309 22.3623 97.4220
-10.0074 -23.0077 -14.6318
-100.3105 29.3105 106.1468
-48.3362 95.4680 102.7356
7.9206 -30.5735 104.6010
-20.5666 11.0134 102.6492
-28.4446 -12.9533 100.4901
-77.6812 9.2999 113.6869
-7.0445 60.7999 97.0727
-50.3567 54.3507 104.6173
46.8968 33.1590 95.6203
-86.4884 -41.6128 109.6581
25.0905 -27.9818 102.0819
-72.9623 4.3087 109.4588
-10.0074 -23.0077 -14.6318
37.8733 31.5667 98.8059
-32.9839 -28.8215 103.8726
-10.0074 -23.0077 -14.6318
-37.7914 82.4519 105.0293
14.5802 79.0498 94.3188
-7.2204 37.7288 99.1440
-2.5452 24.8562 97.9620
-45.8413 -17.8011 106.7961
28.7287 10.3405 100.9250
-30.3578 -33.9212 101.7553
26.4692 16.4834 98.2265
1.3093 9.1526 103.2342
48.9124 -0.8005 100.4182
34.8786 -7.9596 99.2677
44.3308 -37.5647 99.8559
-10.0787 -14.2472 100.4608
-10.0074 -23.0077 -14.6318
-10.0074 -23.0077 -14.6318
56.4741 49.1964 94.5336
15.4768 -10.1936 102.9817
52.4836 -12.9441 95.7290
39.4366 -18.9712 102.3411
-56.4728 49.2772 108.7994
-10.0074 -23.0077 -14.6318
-10.0074 -23.0077 -14.6318
13.3945 -40.5968 102.7419
-9.4791 42.0723 97.5297
-47.3348 67.5708 106.7319
-66.1743 100.3926 106.5729
-50.3509 -22.1629 107.8719
-57.0826 6.1083 109.5006
-10.0074 -23.0077 -14.6318
-0.8682 -17.4550 99.5982
44.3308 -37.5647 99.8559
66.4907 48.4016 91.7336
-39.3461 7.4354 102.8002
-10.0074 -23.0077 -14.6318
18.0833 12.9177 100.4148
-11.4819 2.1348 99.1530
69.0373 48.2133 91.1778
-81.2559 28.9950 111.4055
8.9326 0.7356 98.6106
-10.0074 -23.0077 -14.6318
-91.6779 -1.5931 107.3187
-91.0595 -15.9407 107.9806
-2.0663 23.5876 97.3466
16.1781 48.1033 100.8459
-53.1733 88.9127 107.2074
-39.2341 -38.7036 105.0194
-66.2543 58.5149 108.4399
2.7334 -0.4339 99.2827
-87.5321 1.0331 107.7838
6.7519 1.4835 98.5476
-10.0074 -23.0077 -14.6318
-57.9078 20.7999 106.7758
-104.2869 69.9156 103.0955
-44.2189 64.1377 107.0468
50.0771 16.2106 97.0560
-10.0074 -23.0077 -14.6318
66.7488 78.9182 93.0659
-10.0074 -23.0077 -14.6318
-37.1871 32.4742 100.8760
-99.6613 42.7204 101.3042
-28.6474 -17.5000 102.2156
-15.4669 75.0724 100.9937
21.2424 -39.5661 102.5778
-97.9444 95.4474 100.6413
-10.0074 -23.0077 -14.6318
1.1344 -29.5246 104.5519
1.1152 3.7605 98.9680
1.1223 61.8163 95.4667
-89.7449 -18.4199 107.4177
-45.9382 -19.6545 107.5811
-33.0619 -25.8855 106.6355
-10.0074 -23.0077 -14.6318
63.4616 24.1668 94.1166
-17.6249 2.2802 100.0061
-0.7086 50.8973 100.6418
-75.4393 -42.4611 108.9936
45.7829 -30.3155 96.4403
-50.4519 -8.1815 104.4899
47.9515 19.7218 100.2074
-96.3653 21.5362 103.4230
2.4924 75.4755 96.9132
-93.9390 39.9564 104.8466
55.1580 0.1581 98.0500
-52.2004 99.2327 102.7441
15.9213 -0.4449 98.6564
-99.6100 34.7609 103.9313
29.5369 -23.6995 99.0796
-10.0074 -23.0077 -14.6318
-21.1425 -4.9825 103.7969
17.4904 -2.8342 99.4454
35.6782 -37.7003 102.6804
65.9907 29.1624 91.8265
-48.5263 -17.5869 107.6392
-22.9878 84.1912 99.5438
39.3438 68.1813 98.3583
14.2667 -32.0608 104.8812
57.8909 12.1412 94.2627
51.4458 -16.0487 97.3267
-70.2052 83.4708 108.2107
47.6595 -6.6796 95.7809
73.9644 74.1652 92.4851
8.2292 -8.0425 102.4520
-26.8640 55.3952 103.1407
-93.7559 -9.9196 110.0924
-47.2950 77.8635 102.8163
-63.6684 -31.7800 110.1579
51.5008 60.7634 98.8609
-21.6461 17.2972 102.1737
75.0978 81.0519 89.3996
-64.1986 76.9610 108.7685
41.1590 8.3715 99.0975
-111.0651 79.2838 94.7021
41.2986 89.0348 93.9672
-83.4652 3.0982 107.7508
-30.0910 -6.8227 104.8242
-102.9103 82.1304 98.3765
29.1193 121.6079 115.2306
64.1839 44.1888 94.1808
-57.9983 -23.8811 105.6841
-32.6680 74.9159 100.4813
-64.2105 9.4644 110.6071
-26.6487 21.7224 101.1228
-15.8467 29.1413 100.0501
19.9253 -21.2158 99.7639
-10.0074 -23.0077 -14.6318
42.7243 3.3406 100.6713
-10.0074 -23.0077 -14.6318
6.9654 -11.3229 104.0524
-33.7570 -23.1656 105.5155
-69.5516 -38.6639 112.8240
-78.5981 27.7729 110.5930
-92.5565 2.0575 105.4785
56.5924 80.1135 96.1171
39.2702 -16.4996 101.3789
-89.3482 1.8867 107.0960
54.0096 -18.4762 97.5073
-79.9114 100.4387 107.0979
32.0256 -22.6406 98.8570
11.4040 10.6414 101.8973
-10.0074 -23.0077 -14.6318
-24.0071 86.0285 99.0978
-99.5622 2.8019 104.0285
-62.5594 32.4397 109.2296
-44.3453 13.9551 102.6548
28.9667 8.3088 101.8504
-53.6502 80.9055 104.0178
11.1026 17.3168 98.8277
-52.3433 -28.7179 104.9694
69.6943 78.6148 92.1634
-28.6299 -8.8661 103.0234
-10.0074 -23.0077 -14.6318
-40.3365 30.7639 102.2069
-52.5546 33.9201 105.1593
21.7675 -28.9339 102.9506
-79.3657 30.3971 113.0699
-10.0074 -23.0077 -14.6318
68.9013 69.6726 90.9735
-109.9180 56.8209 96.5193
-92.4032 8.4122 110.6283
-10.0074 -23.0077 -14.6318
23.3934 -7.1162 101.0482
24.1750 12.9969 99.9874
-10.0074 -23.0077 -14.6318
-32.4790 12.6341 102.4835
42.2010 65.3732 99.4746
11.5410 80.1545 93.8920
-10.0074 -23.0077 -14.6318
53.3888 -18.9513 97.8981
-3.4947 71.2217 100.1712
-10.0074 -23.0077 -14.6318
-1.1324 -37.6461 101.7402
-82.9433 -23.7134 110.2348
41.5522 49.5389 98.5444
32.2636 -22.0506 99.1726
-13.4481 1.7353 99.6270
-20.5713 64.6776 98.6255
-56.5770 8.2674 108.4483
33.7844 37.5450 96.4951
29.5482 46.3134 100.8118
-68.2459 85.4658 107.0284
45.5944 25.8857 99.0192
-35.2328 49.9241 101.1695
-10.0074 -23.0077 -14.6318
42.5127 -23.3731 99.2468
-28.4844 71.7266 98.9633
17.8871 -0.9209 98.6889
31.2190 -25.8204 99.2380
-77.0050 59.3956 109.9822
12.3432 -26.6051 102.4800
-95.6785 -16.7715 106.4758
-10.0074 -23.0077 -14.6318
-56.8175 76.5459 106.3777
44.7745 8.3511 97.9632
11.8416 26.2619 101.3116
-21.7353 21.2311 100.4248
-70.4538 7.3994 112.8819
-64.1800 -0.8525 106.7173
-85.7588 -44.7207 106.7445
-43.5559 11.3239 102.6775
-69.7701 -0.4827 108.0529
0.5054 31.6133 101.1885
-23.6911 -26.9144 105.7162
-96.7650 60.3306 102.7848
-51.7803 -13.3541 107.0502
44.7088 72.9075 95.8254
-17.4388 -14.5831 99.8021
35.2468 66.0765 99.5961
20.6228 59.0131 95.5076
53.8006 -16.5795 96.7981
37.2358 -5.7843 97.6294
-95.9462 -26.1014 107.0952
-40.0613 85.4733 104.4388
7.5167 -5.1931 101.1784
-10.0074 -23.0077 -14.6318
-12.8097 3.3033 98.8294
-25.4825 5.1952 99.8680
-83.5538 101.9883 106.3706
-10.0074 -23.0077 -14.6318
5.9374 -3.1333 100.3264
3.2004 23.0527 97.4868
-10.0074 -23.0077 -14.6318
-48.0765 85.6462 106.9821
-10.0074 -23.0077 -14.6318
-103.3234 41.3064 99.4939
-39.7995 5.1611 103.8858
-83.8085 -0.3697 108.7901
60.0354 2.9158 95.3788
-20.2575 -4.4608 103.4319
-17.8760 25.9902 98.0128
-33.4961 -27.6787 104.9248
-10.0074 -23.0077 -14.6318
-10.0074 -23.0077 -14.6318
-16.1332 57.5081 100.0009
4.4166 -6.0331 101.7668
42.5916 -5.5049 96.4202
-44.6795 -30.4240 103.0515
45.4507 -31.4756 97.0182
25.3999 -32.3705 103.7832
21.8918 -25.6312 101.4136
-96.9750 71.0512 106.9725
20.6382 34.7858 98.4242
-10.0074 -23.0077 -14.6318
-82.8530 43.3304 107.5063
17.6620 78.6448 94.3664
9.8030 70.5032 99.1827
-13.4236 -28.8710 105.1848
-41.8288 -33.8687 103.5393
-10.0074 -23.0077 -14.6318
16.1493 91.1324 93.9501
-23.6459 -3.4678 103.4875
17.0699 -22.8442 100.4342
27.5891 -17.9413 102.3971
38.9633 20.8570 99.9958
30.2204 -24.7293 99.1111
-24.1584 42.0603 100.5212
-48.0823 69.2689 106.3008
-90.1687 98.7746 104.2376
-52.6862 -10.2989 106.1240
-10.0074 -23.0077 -14.6318
-19.6854 25.5077 98.2153
49.5065 27.4756 97.1354
13.2090 -31.5931 104.7329
-30.4747 67.4107 100.9494
47.3594 73.3386 95.4555
-36.0432 25.8312 102.7190
20.1491 11.6310 100.8780
-10.0074 -23.0077 -14.6318
45.7989 -17.8609 99.8623
-10.0074 -23.0077 -14.6318
-5.4178 -19.6561 100.4080
-10.0074 -23.0077 -14.6318
31.3282 -34.4844 102.7532
-42.5168 -16.8000 105.2389
-38.2362 9.6213 101.5224
-5.4871 72.5232 99.8930
-30.9052 37.2578 104.8103
-98.3802 38.1602 103.0276
28.6634 58.2110 95.4167
55.0759 15.5630 97.1577
43.6049 47.5055 99.2578
20.1750 -7.5928 101.4757
12.8906 37.8200 97.5179
4.7651 -35.4578 102.9163
48.8512 82.9032 96.6294
-10.0074 -23.0077 -14.6318
-8.4103 59.6832 97.7838
-93.4916 62.7475 103.5952
26.2779 -39.9562 102.1276
51.9783 -23.6340 100.2688
-12.0461 -22.4184 102.1119
-10.0074 -23.0077 -14.6318
-31.6665 85.1926 101.8197
18.8671 -11.4439 103.3426
50.9402 85.7812 95.2550
8.4512 79.5801 94.3724
23.3930 -30.1383 103.4034
-57.6015 11.1607 107.6280
6.6493 37.2995 98.1603
-6.2535 38.5005 98.6505
57.3113 80.0211 95.9042
51.7756 -26.8644 97.1730
-29.1513 23.2644 101.3674
-0.8596 -21.9795 101.1897
5.0345 93.1502 94.3268
-31.5015 69.1232 100.6108
-17.1589 76.9690 100.7318
11.1267 17.8656 98.5722
-10.0074 -23.0077 -14.6318
-10.0074 -23.0077 -14.6318
69.0056 66.1036 92.1904
-37.9775 95.6233 99.9883
-93.5505 16.3681 106.9935
-10.0074 -23.0077 -14.6318
-10.0074 -23.0077 -14.6318
-55.8592 14.4025 105.6997
20.8102 47.5877 100.7857
-10.0074 -23.0077 -14.6318
-44.7333 84.1972 106.5285
-67.9958 -42.7273 108.9021
-30.2744 51.2361 99.4383
-20.3260 45.8262 97.6636
-10.0074 -23.0077 -14.6318
-110.6084 73.4570 97.5546
-19.0497 94.4041 96.8321
-87.7480 104.8980 106.2215
13.6032 39.8249 96.5440
-7.7371 75.6423 98.8397
37.0536 65.7202 99.6449
-20.5877 -5.2889 103.8524
-10.0074 -23.0077 -14.6318
-87.3756 54.6512 111.0188
51.8471 22.4412 98.4710
-57.2528 39.1681 104.9678
-37.7110 51.5048 101.3870
-57.2518 96.5564 105.1694
-10.0074 -23.0077 -14.6318
-22.5287 -9.4952 103.3067
-13.2348 -30.9279 104.7204
6.1682 51.7283 99.8135
-41.3218 32.4621 101.8580
1.4480 118.5302 117.3203
17.9142 37.8529 97.1796
47.4071 -3.8492 98.0517
32.2786 25.2685 102.0814
-10.0074 -23.0077 -14.6318
-8.4399 2.1989 98.7820
-38.7501 -24.8940 106.8952
3.5251 12.6095 101.4919
36.5766 -35.6426 101.5488
33.8631 -11.5798 101.0774
-98.7940 9.5610 107.1179
33.4953 17.4683 97.5894
55.2741 65.9837 96.5199
-86.9679 -8.5190 112.0746
-46.9006 31.3199 104.2564
25.8029 -38.3624 103.1672
-4.2049 -1.2887 100.1245
-1.3178 64.4102 95.2922
-24.4176 16.9559 102.7434
50.6593 34.1019 94.5625
-79.0408 -1.3472 109.7159
4.1944 66.2866 97.3015
-10.0074 -23.0077 -14.6318
21.4741 -11.4715 103.1878
-10.0074 -23.0077 -14.6318
33.8021 91.8291 94.0983
-29.2598 -23.3604 104.9399
56.8907 25.7611 95.5213
37.1853 16.7663 97.2399
47.7112 42.6096 99.9875
-85.7202 -33.2180 112.9104
-96.3341 17.5890 104.7166
-105.9269 94.4806 97.3873
-101.2141 7.0167 106.8856
-35.6568 -15.8206 102.6647
-57.9104 -4.7773 105.6901
-62.1178 -31.2243 109.3956
-18.0519 -5.6897 103.6571
-10.0074 -23.0077 -14.6318
-92.0849 63.7837 104.0481
46.7490 11.5759 96.0169
34.9270 51.5982 98.0187
-9.8862 13.8134 101.9802
11.4145 59.3518 95.9444
-50.0038 20.0049 107.1626
-100.5780 55.2044 102.9618
5.5303 -30.9042 104.9075
-57.8453 55.9350 106.5712
-10.0074 -23.0077 -14.6318
-18.0350 -16.5369 100.2115
-89.5317 36.4433 109.2153
48.8930 91.8069 94.0453
60.0823 38.2742 97.8985
-97.3966 84.2709 100.8037
44.1469 -47.0057 98.9188
-6.8685 38.5661 98.7139
-26.7046 11.3929 102.1140
-80.2009 -38.8296 112.4419
-18.3187 54.7450 101.8821
-57.5969 82.2436 104.8210
-10.0074 -23.0077 -14.6318
-10.0074 -23.0077 -14.6318
-61.0819 6.0364 110.9156
16.6950 -8.3364 102.0436
12.4864 1.6886 98.7985
-2.3469 -2.7713 100.6915
-93.6884 -37.9547 109.7600
6.0451 37.6249 98.0486
-10.0074 -23.0077 -14.6318
-43.4553 18.6406 106.7863
-40.2073 11.0169 101.8123
-0.5210 -20.3031 100.3918
-59.2453 -39.3281 110.9763
-98.6213 16.8404 103.6949
-100.4769 26.9156 106.5036
-6.4446 59.7586 97.4498
-66.8026 -37.1216 112.1900
2.1324 -1.4688 99.8004
12.2090 20.9467 97.4691
2.5106 56.9596 97.6265
-10.0074 -23.0077 -14.6318
-74.1258 36.4739 111.4458
-49.5386 65.6207 108.2890
54.2489 25.2081 96.5777
-14.5503 -35.2474 101.0658
73.1653 80.3678 90.3072
43.5753 88.7524 93.9895
57.3891 81.6199 95.2273
-10.0074 -23.0077 -14.6318
56.6232 51.9402 93.4077
-10.0074 -23.0077 -14.6318
7.0775 26.1320 100.4772
11.9100 -37.5898 102.3718
71.0749 39.9561 93.7659
-67.1180 -37.1719 112.1706
-10.0074 -23.0077 -14.6318
-79.4077 33.7342 112.1143
-10.0074 -23.0077 -14.6318
-49.9751 81.8682 104.6549
-74.4807 15.9311 111.5188
10.2863 74.1317 97.2056
-28.4476 -29.5712 103.8048
-100.3803 38.1876 101.8028
0.1798 -1.8646 100.1091
28.8384 39.9337 96.6043
11.1464 -19.1969 99.6356
63.0808 85.9088 91.5804
-33.7433 50.8575 100.2768
20.5710 71.8544 97.8630
17.4681 -3.3841 99.7014
-10.0074 -23.0077 -14.6318
48.4605 2.6176 99.1556
-101.8380 87.0489 101.5269
1.0358 -31.6642 105.5478
45.5578 12.0696 96.1900
32.0583 15.2072 98.4583
-94.7586 -25.8356 107.6850
31.8828 10.3492 100.7187
-38.9232 -14.6811 103.1353
43.5480 29.6036 98.1328
-10.0074 -23.0077 -14.6318
-55.5881 12.2182 106.4966
-3.8952 -20.3248 100.6194
-32.9863 62.1494 103.9593
-61.8973 6.0843 111.1787
-30.5434 37.4980 104.5873
-21.9968 -29.8418 104.4938
-87.3187 51.7953 111.8209
-55.5782 74.5939 106.7397
27.6325 -4.2232 99.4366
-10.0074 -23.0077 -14.6318
-10.0074 -23.0077 -14.6318
-49.7922 -36.8222 107.4091
-22.6994 44.5111 99.0205
51.8177 -24.3251 99.6862
-10.0074 -23.0077 -14.6318
-10.0074 -23.0077 -14.6318
-16.3341 60.2073 98.9732
-19.1589 24.0621 98.7690
52.9245 17.9270 99.1726
-62.4917 1.1586 107.9009
0.4455 9.4916 103.1327
-30.7648 -15.5041 101.6307
54.8562 -19.6068 97.7015
32.7147 -0.8653 98.9253
-6.2947 91.1272 94.7273
-18.7687 80.7387 99.6675
-0.5907 -6.4703 102.2915
-86.6234 80.4310 108.6647
-74.4138 54.8077 112.2813
-99.8754 55.3148 103.3339
-10.0074 -23.0077 -14.6318
-24.2997 60.5563 101.5941
-30.5330 -37.0361 103.1546
55.5693 8.8848 94.3396
9.8219 38.8604 97.2337
-62.7135 -28.2901 108.4016
-17.8425 44.2343 97.8201
-1.0493 4.5519 99.2041
-27.7942 18.1475 102.9626
54.0390 53.3731 93.8128
-27.6715 -14.9483 100.9228
-54.1676 2.8038 109.8329
-10.0074 -23.0077 -14.6318
9.0903 58.5035 96.4872
-81.6167 10.9345 112.9979
-48.5760 -32.4247 105.1806
-1.5557 -20.2192 100.4197
52.9585 18.5120 99.7382
33.3491 36.2763 96.9167
32.3881 -34.3901 102.3754
30.6334 67.8536 99.0700
-91.4174 -37.0493 110.8368
-111.1176 71.3514 98.2656
-31.7032 -34.6073 102.1926
-70.5212 -18.7401 108.5672
26.2555 -0.5199 98.7481
23.1237 -1.1441 98.6335
-10.0074 -23.0077 -14.6318
-81.2218 -36.4537 112.7874
11.6965 -12.3685 104.2322
-10.0074 -23.0077 -14.6318
-17.0192 53.4593 101.9541
-94.1913 52.1093 108.3252
17.5306 25.8137 101.7124
2.0682 19.0290 98.6157
-70.1143 20.7895 108.0507
-54.7753 49.2283 108.2305
-66.1266 39.8444 107.4558
43.1928 37.8273 96.4358
-5.2569 120.8558 117.8633
46.8186 40.7811 99.6348
43.7683 83.6976 96.2992
-36.8184 31.0484 100.9180
-45.4842 63.4013 107.7850
-0.8425 -17.1708 99.6249
-82.8566 -22.3072 109.6205
-10.0074 -23.0077 -14.6318
-10.0074 -23.0077 -14.6318
49.9190 53.7541 94.7104
28.3439 84.4087 96.0982
48.5124 -37.0657 98.3213
-83.5500 -27.6999 111.9405
-83.0651 19.0719 109.2400
-10.0074 -23.0077 -14.6318
-10.0074 -23.0077 -14.6318
-15.2003 25.7746 97.8335
-94.9929 45.7226 104.6882
-8.8235 -10.7813 104.0685
-66.2706 18.7023 107.5657
-90.7810 -31.5261 112.8497
-10.0074 -23.0077 -14.6318
-5.6213 17.0714 100.0151
0.2750 3.8036 98.9241
-78.5498 34.7793 111.7396
-10.0074 -23.0077 -14.6318
11.9618 73.0746 97.6823
-94.6893 -1.1461 105.2798
-106.8848 39.4394 97.6702
39.6019 -28.5211 97.6738
30.8774 74.8226 95.6937
-63.4175 -38.2901 111.5578
0.2716 78.5792 95.8537
-1.8124 -8.8953 103.4931
43.5174 77.5331 94.1972
19.0885 87.8958 94.5347
9.7945 31.3225 100.7253
3.3318 -38.1516 101.9245
12.5330 16.1122 99.2931
-22.1398 61.3525 100.5213
4.7683 -4.4063 100.9908
-10.0074 -23.0077 -14.6318
-72.0936 -19.6116 108.4759
-97.2931 57.6050 103.7872
47.0747 65.0566 99.3078
-26.8715 49.3551 98.8086
57.5460 61.3089 97.7366
-33.0991 17.1130 105.2180
-79.5207 -37.2362 113.2899
-10.0074 -23.0077 -14.6318
-30.9628 51.0076 99.6202
-64.5581 -33.9769 111.3608
-88.5380 -38.3048 112.2995
16.2286 123.9454 114.5258
-62.6771 78.8640 107.4691
23.5803 5.6432 103.4301
26.5145 122.0344 115.0946
-57.6313 -18.3652 110.5420
-70.8016 38.0112 109.8218
-18.0489 47.2512 97.1129
39.2954 26.5367 100.7312
32.4195 -6.6518 99.5124
-44.5407 -5.9263 103.5793
-40.9706 99.2785 100.7302
7.6354 31.7434 100.6694
-39.8159 -33.9811 103.1129
35.1629 91.1892 93.9080
-28.0385 7.9108 99.5121
-63.6684 -31.7800 110.1579
-5.6582 -29.8828 105.1539
-10.0074 -23.0077 -14.6318
44.8164 9.2339 97.5870
-113.1163 74.3471 95.6063
-10.0074 -23.0077 -14.6318
