# .PCD v.7 - Point Cloud Data file format
VERSION .7
FIELDS x y z
SIZE 4 4 4
TYPE F F F
COUNT 1 1 1
WIDTH 1821
HEIGHT 1
VIEWPOINT 0 0 0 1 0 0 0
POINTS 1821
DATA ascii
-166.4545 100.6860 39.5308
-227.8038 55.0644 29.5895
-274.9294 46.4063 -16.3155
-176.6329 -1.4270 84.6434
-143.2057 119.2593 75.0325
-257.1190 86.3457 -43.5956
-184.3299 4.0285 82.3826
-287.0852 -0.0085 19.1083
-157.2485 44.2815 76.6351
-184.5603 14.7278 75.5722
-227.6606 7.0224 58.2791
-207.9006 -4.2489 76.9987
-295.2474 -7.0241 17.7967
-209.8916 -12.5826 73.6707
-222.6874 59.3301 26.3539
-171.6492 -12.5991 89.4506
-238.0126 79.0387 0.8198
-229.3236 -5.7653 67.4432
-252.5456 44.2258 16.1453
-130.3016 112.5838 84.8619
-188.7603 12.9361 76.4032
-232.0834 35.7001 39.9444
-216.3843 45.0445 47.2979
-252.9375 84.6615 -23.4987
-248.0063 -11.9878 60.8127
-233.2431 13.8789 51.1140
-232.5940 101.1448 -14.0169
-237.8955 -2.3000 58.1602
-240.3580 89.7445 -15.5505
-195.6588 107.5206 10.4579
-154.6706 137.5714 52.7186
-295.1924 -9.4730 16.8926
-215.8610 58.3424 31.8363
-228.4880 92.8514 -6.9425
-237.5367 92.1750 -17.5131
-262.1978 59.0361 -16.1776
-225.2430 -16.4711 74.0773
-237.9382 103.1018 -24.9943
-169.2289 36.4707 72.8705
-165.2624 -7.2891 90.5218
-153.6522 71.3730 67.0312
-234.4415 40.4662 32.7544
-225.4362 -5.1490 67.3388
-287.2491 -14.1910 26.0305
-153.2494 93.6303 53.0147
-232.9683 40.5995 33.2372
-198.8458 19.7602 71.3081
-175.5449 -2.5797 85.1302
-201.9950 13.0985 67.1042
-243.4179 -10.4405 60.3705
-139.1647 -43.4062 -23.0400
-139.1647 -43.4062 -23.0400
-246.0204 60.8325 8.7882
-253.8665 47.8210 9.4826
-238.4469 74.8746 -1.4578
-225.9774 31.4311 47.2363
-282.2328 -28.9280 26.7065
-146.9238 37.3218 82.3115
-218.9468 -5.6272 68.1256
-190.7694 24.8763 68.6480
-189.4228 74.7085 46.7075
-213.0032 96.2020 3.2485
-264.1245 70.5243 -33.3053
-267.3455 35.9043 5.6721
-206.6663 16.4142 63.9329
-239.2746 22.8349 40.6352
-249.9187 98.4480 -54.7969
-153.7486 28.4265 86.9922
-228.8542 87.8684 -6.6436
-159.0969 126.1905 60.0002
-139.1647 -43.4062 -23.0400
-139.1647 -43.4062 -23.0400
-231.3174 38.6479 36.4859
-168.0551 -12.1421 89.1933
-231.2836 75.5212 9.4744
-165.9623 74.9328 61.4523
-193.6081 83.4924 33.5275
-201.4089 15.5161 68.2238
-290.5688 -12.8250 21.8875
-143.0352 53.7456 80.5917
-228.9375 -17.2912 67.5588
-236.3786 55.8538 24.5193
-175.5271 54.2946 67.6360
-151.5531 55.6307 78.7603
-270.9631 5.9617 34.7344
-175.7466 73.7443 50.4511
-191.1722 -7.9792 79.5426
-187.4203 73.0636 48.6986
-157.1157 32.9264 83.8753
-212.2443 39.4364 53.0763
-192.7781 31.3481 64.1294
-238.3362 90.2251 -15.1730
-180.8438 81.6886 42.2690
-247.0556 43.2499 22.2756
-141.9582 68.8649 72.8033
-180.3873 92.4240 40.2710
-187.8125 87.0795 32.2777
-282.0475 32.8012 -3.8520
-201.4276 2.5627 73.1440
-139.1647 -43.4062 -23.0400
-194.8258 91.9465 22.7088
-211.2059 11.7379 66.5732
-225.4459 111.8375 -23.5464
-171.4167 100.5990 35.4302
-193.9365 124.6100 9.6517
-242.3194 36.4455 34.4358
-281.2252 33.8673 -1.9220
-223.7663 48.7406 39.5326
-137.2218 105.2102 81.8722
-283.6651 35.5668 -13.3987
-133.4694 59.7239 83.3424
-139.1647 -43.4062 -23.0400
-262.1099 21.8920 26.3779
-154.2381 39.5089 79.8985
-171.9350 -16.3442 91.0933
-273.1863 -8.5969 40.6898
-147.6226 110.4495 69.0671
-296.0952 -3.4796 17.9792
-160.1203 70.3274 66.6263
-238.2967 58.2819 18.5817
-268.7464 -23.2240 48.8477
-272.5034 -17.8158 45.8391
-250.1359 -1.2402 50.9059
-139.1647 -43.4062 -23.0400
-288.4641 -13.6560 24.5297
-158.5370 76.2412 61.6335
-179.1306 139.0602 35.8321
-257.5418 61.4556 -9.5439
-174.1161 83.0731 52.6721
-139.1647 -43.4062 -23.0400
-229.6475 66.1257 11.9868
-198.3243 -5.2579 78.3555
-242.0081 59.4744 13.4703
-267.4893 23.1394 17.4569
-139.1647 -43.4062 -23.0400
-224.5910 54.7376 31.4340
-230.9755 19.4547 49.0867
-217.8662 48.2614 42.7642
-203.0321 70.3264 33.6073
-191.2409 -18.2492 84.0241
-194.2540 -0.6823 76.0448
-255.9431 85.0860 -34.2829
-166.4543 -12.2886 89.3702
-212.4595 60.9047 38.0578
-227.5514 65.3323 15.1626
-235.8885 49.7032 23.0122
-215.5583 42.9892 49.2768
-216.8978 78.0457 16.3018
-218.4993 53.4289 35.8202
-159.6169 -13.6103 97.6249
-211.2263 67.8746 33.1338
-200.0835 92.4438 19.1026
-165.3962 23.9391 80.0633
-180.3658 -11.8644 89.2697
-192.6731 -3.6857 77.8780
-169.4306 -13.5010 89.8097
-235.4445 24.1604 43.4396
-203.9324 12.9522 66.3729
-255.9327 40.0270 14.2977
-189.2970 35.5947 67.4818
-286.3286 -18.5166 25.4508
-216.6290 32.3507 49.6632
-215.2200 42.9254 49.4010
-187.2628 50.2202 58.7329
-262.6466 -21.8938 57.3717
-205.4594 53.7278 47.1630
-273.6344 -9.1647 41.2238
-226.7986 65.4626 15.8737
-174.3194 30.2756 75.3603
-246.7416 -7.2233 56.8651
-284.1466 8.5830 12.6751
-191.8342 74.4521 45.9683
-270.7065 0.2619 32.9095
-129.4292 127.4640 77.4432
-207.6375 35.9940 57.0382
-196.1831 64.5614 44.0792
-232.8577 43.6070 29.4105
-138.0071 78.0025 69.9065
-204.4157 -7.4876 79.3206
-150.7827 85.9662 58.9146
-174.8648 10.2394 81.4949
-222.2814 42.3204 43.5101
-239.9787 6.6293 56.1460
-262.4475 -9.3140 45.8595
-188.3513 128.8012 19.3321
-182.4632 94.2210 36.9508
-222.7383 83.7825 2.3306
-157.8369 46.8754 74.9396
-227.2291 81.4444 3.0632
-167.9642 1.7132 89.8166
-207.3889 69.6268 32.5749
-248.3392 49.8413 9.5230
-221.5721 70.1760 25.5729
-208.8964 32.8133 59.5909
-226.0903 16.2503 56.1886
-232.7862 62.0942 16.0137
-185.6320 86.1667 35.1819
-246.8239 68.9153 -3.0724
-206.2379 65.6025 38.2732
-154.2442 72.9713 65.4717
-139.1647 -43.4062 -23.0400
-144.9240 74.7677 69.9547
-212.7867 91.0532 12.6119
-167.6907 67.4221 58.5577
-280.6908 -33.9251 26.5836
-207.8438 -13.6867 75.4022
-193.2493 7.6834 79.0774
-226.0058 50.8215 35.8571
-198.2678 76.1463 38.8019
-229.6602 5.8501 58.9098
-213.3426 59.3760 35.8118
-199.7619 10.4536 69.4912
-229.8677 -0.8616 64.2781
-198.5780 42.1586 54.7686
-190.2669 36.3301 66.1034
-158.8435 -10.1151 96.3701
-187.1743 6.8398 80.4075
-132.5798 104.3255 88.3216
-251.5395 -3.1682 52.3245
-246.3909 26.4229 32.8469
-217.6248 57.6196 30.9367
-239.7578 76.4294 -3.0678
-192.1142 41.8916 65.1038
-139.1647 -43.4062 -23.0400
-219.8921 104.6462 -12.3133
-202.8479 21.8552 68.5442
-247.2912 16.5555 45.1718
-180.4286 36.4940 70.9466
-227.0445 -11.6457 71.3607
-273.8841 53.5053 -25.5205
-219.4761 105.1933 -12.8491
-172.5466 57.5492 65.3692
-172.5450 123.1785 38.9289
-213.0591 29.8523 54.1479
-184.8874 17.7786 73.6049
-166.6842 32.2668 75.5724
-248.8951 49.1649 10.1884
-180.7095 31.6890 73.9874
-216.0001 107.2471 -9.5831
-161.4692 132.1513 56.4954
-171.3964 -20.0635 92.7116
-271.4134 62.9414 -33.8080
-184.0521 55.6331 55.5437
-208.4886 23.1190 59.7014
-160.7810 24.1653 81.8664
-200.2838 37.7779 56.9459
-230.3085 60.6980 20.5189
-234.9951 -9.1735 61.0979
-215.1449 100.6258 -4.1354
-266.9372 -21.7436 52.2220
-253.3928 67.9364 -5.1260
-268.6497 68.4788 -37.0744
-277.1047 4.7695 23.3701
-281.7182 -12.7355 34.6648
-205.8708 79.2467 26.7964
-275.1227 25.5013 5.3636
-278.7190 16.9160 12.9768
-234.1005 56.7008 24.6706
-161.2638 30.9201 83.6496
-260.8929 55.1836 -4.6136
-256.1887 87.3413 -45.5060
-252.3805 -2.3469 51.4310
-213.9721 -8.2188 70.2027
-257.7660 87.1051 -52.4219
-208.8308 8.8871 68.5649
-218.3484 75.0883 20.5337
-231.9703 103.8831 -17.5652
-250.1685 68.3079 -3.9638
-144.7576 24.2093 89.3446
-214.6425 17.2923 61.9873
-284.2654 -4.8567 30.1795
-190.9458 63.5048 47.0410
-268.7184 53.9506 -12.2389
-146.8927 38.4411 82.0658
-186.2853 32.3463 71.3267
-164.9501 -15.6572 90.7673
-226.9021 115.8394 -30.5404
-155.6691 135.8392 54.3450
-230.3167 99.1060 -9.9369
-182.5452 -15.1063 87.6750
-199.9114 25.8779 67.3316
-274.3680 -23.1639 40.5628
-253.2021 91.7807 -50.6669
-275.1405 -12.4212 44.0762
-146.0309 28.5377 87.4723
-247.4428 91.3696 -37.9174
-223.6135 17.2436 60.2199
-258.4255 42.0861 10.8313
-193.4939 14.7602 74.8910
-165.3150 59.9102 64.7496
-243.4889 28.2190 32.5353
-201.9882 20.5785 69.4843
-153.8271 3.5904 90.2992
-247.5123 -12.5309 61.3910
-250.7046 -12.6733 60.8748
-238.1029 -7.9090 59.2064
-186.6033 20.6172 71.6698
-146.5319 79.2284 66.4368
-256.0340 73.0494 -21.3214
-237.4939 104.9395 -37.7111
-152.4283 75.8917 63.2310
-214.0887 23.0566 57.0174
-234.5965 110.1094 -41.3829
-171.6729 53.2182 69.3622
-186.0230 75.1263 47.1619
-283.0227 -31.4582 24.5044
-259.9370 52.7710 -0.7005
-267.9453 1.4016 37.9989
-287.3765 15.2599 9.9909
-257.6023 7.9499 38.9774
-267.2972 6.9639 35.9490
-251.1394 -4.8221 53.8635
-238.6027 21.4565 42.7118
-217.3218 -1.2879 65.8761
-169.3408 11.2968 87.1735
-200.4856 85.9750 27.2754
-160.9914 15.5551 85.1839
-151.4399 83.3491 61.2694
-155.7778 49.3973 73.6424
-149.1265 77.6242 64.3400
-155.0640 125.3199 65.2916
-231.0919 78.8282 4.7393
-282.0142 26.7468 -5.6858
-176.9113 13.1028 79.2669
-274.0986 39.7360 -4.5282
-237.8085 67.7082 3.3519
-156.5644 136.7466 52.4933
-253.9751 73.2871 -16.3805
-179.6116 -4.7156 86.1304
-203.9313 84.8631 27.1811
-216.1864 6.9025 69.2823
-156.3212 75.7814 62.5119
-255.1694 10.2001 37.1755
-165.8715 54.7703 69.1666
-180.7172 14.4356 76.2090
-200.8738 16.3041 69.5222
-139.1647 -43.4062 -23.0400
-190.0488 99.3050 26.9864
-139.1647 -43.4062 -23.0400
-218.9577 80.1948 10.7569
-162.5399 -5.8802 94.5769
-132.8392 67.5580 78.0217
-250.2783 9.9855 42.1542
-155.0714 35.2969 82.5183
-201.2614 7.9125 69.7499
-277.5167 14.2997 17.3676
-208.6237 68.3028 33.7346
-162.7882 26.4679 79.7191
-246.1524 100.2677 -44.5892
-282.5600 -23.1139 28.8476
-208.6465 87.4567 21.7307
-148.1266 58.5162 77.1758
-206.0638 25.2257 64.3943
-142.5954 118.7861 75.6457
-161.9373 18.8087 83.5900
-180.5982 75.2528 48.1424
-235.8187 89.4080 -12.6999
-228.4660 6.8157 58.2991
-269.9283 -3.9510 36.1427
-203.7120 57.0892 49.3616
-200.0684 39.5342 55.4404
-227.7232 -14.5321 70.5790
-184.4154 25.1368 71.3735
-163.8336 136.4229 48.8438
-243.6821 -11.0061 60.7896
-235.9200 14.6152 49.9266
-180.4102 5.3434 81.7435
-258.5686 -7.8565 50.3556
-155.8460 67.6995 69.8688
-178.6591 14.9596 77.3948
-149.6368 13.2439 94.2129
-173.2715 138.6266 39.9742
-245.5407 17.9942 44.0945
-213.8195 33.5064 54.4544
-281.9459 10.0652 17.2228
-211.6701 108.2316 -3.1969
-213.7934 -0.3130 70.4006
-131.0407 67.4275 78.3024
-171.9650 54.6571 68.0352
-206.7611 36.3622 56.8895
-235.1513 83.5411 -4.0528
-171.4704 -10.6083 88.5770
-149.1691 130.7230 62.3943
-151.5238 61.5269 75.0064
-185.3653 109.7836 16.0877
-287.0557 17.0748 8.3859
-266.1043 56.3202 -15.6849
-142.9427 78.6504 67.8743
-151.6150 75.4293 63.8170
-139.1647 -43.4062 -23.0400
-252.9187 -15.6274 56.8130
-161.8113 13.4219 86.1284
-202.3823 55.3889 51.1291
-257.9362 86.8484 -51.2473
-251.8494 2.8620 46.9431
-180.0820 1.7847 83.2947
-229.9335 82.1336 0.6716
-205.4178 27.5791 64.9067
-139.1647 -43.4062 -23.0400
-224.7520 55.4718 30.4160
-162.0794 7.8150 88.5818
-206.2795 14.7164 65.0429
-234.1572 87.6205 -9.3013
-153.3996 135.8687 55.5859
-257.5165 74.9882 -32.9453
-141.8307 49.2184 83.5651
-216.7350 23.9198 55.7230
-139.1647 -43.4062 -23.0400
-266.2887 67.2367 -24.2922
-273.3855 -29.9967 38.7926
-233.3577 -6.0586 64.4655
-267.2719 56.4887 -19.9567
-165.0762 78.0227 58.7885
-150.6487 69.0202 69.7751
-162.5297 47.9638 73.8961
-139.1647 -43.4062 -23.0400
-182.8271 1.0296 83.6698
-246.2077 75.0981 -11.4149
-257.0739 86.5000 -44.1819
-206.7085 77.7223 24.9437
-139.1647 -43.4062 -23.0400
-189.9193 42.2633 65.2175
-227.1253 15.8830 54.1985
-180.9763 95.8838 35.3169
-216.3311 -9.4180 70.7350
-162.4776 137.3472 48.2560
-155.7629 68.5597 69.1139
-247.3423 100.0001 -51.0500
-219.7030 -8.6230 69.9779
-286.5823 22.0845 -1.6958
-267.4890 -18.8411 52.5478
-257.7733 39.8895 10.9910
-190.4638 20.6929 71.3351
-233.2155 35.5269 39.6646
-210.1193 96.7619 4.3437
-208.5222 -17.0117 75.6410
-229.4858 110.6752 -31.4165
-202.8167 38.7619 55.5676
-207.9678 104.8637 3.5024
-273.2197 43.3408 -13.9187
-202.4592 -3.2878 76.7923
-173.3747 -3.1650 85.3516
-167.3089 11.5729 87.0214
-211.2864 -16.7798 75.4914
-189.4485 -14.5436 82.3771
-224.4475 117.0278 -24.3941
-273.9939 -22.2892 41.5264
-152.1064 1.8057 91.0521
-224.7537 56.9129 28.5569
-176.5622 14.0980 80.2419
-165.0156 62.8483 62.5982
-152.8829 103.7628 58.3216
-252.8626 12.4564 38.4302
-139.1647 -43.4062 -23.0400
-172.6012 58.1172 64.8576
-194.2101 12.9720 75.9785
-139.1647 -43.4062 -23.0400
-116.4577 117.9930 88.5426
-213.0147 100.2277 -2.4559
-191.9020 80.2201 38.5038
-190.6149 8.3732 79.1761
-171.7520 61.8518 61.7381
-151.5310 8.4582 90.6824
-131.6735 106.2562 90.1772
-123.4634 123.1538 82.5073
-264.9576 5.8546 38.4185
-139.1647 -43.4062 -23.0400
-209.4022 35.2513 57.3389
-163.4143 28.6810 79.0729
-138.5957 52.4432 81.7507
-241.3168 102.6745 -37.7981
-179.8205 54.9188 61.7537
-180.8430 107.6520 21.4814
-222.5375 108.4349 -18.4949
-249.8544 48.0599 11.3096
-260.8862 -2.0774 48.8751
-172.0759 55.7858 67.0182
-186.0169 -3.7750 85.8234
-188.6217 -0.0654 83.7426
-221.0495 26.5548 52.5303
-174.0758 62.6435 60.5710
-184.4421 43.2963 65.4081
-257.5823 5.5378 42.0983
-210.0463 62.8716 40.1059
-167.5397 61.5014 62.8979
-152.2136 16.6798 92.7506
-259.9144 12.8960 31.5728
-118.7361 114.3252 91.3338
-219.2455 78.9039 12.8781
-225.4291 76.7844 11.8270
-157.6938 45.6205 75.7493
-228.2499 -14.7844 69.5368
-277.7388 29.8786 2.4262
-180.0037 19.7061 76.7028
-191.3641 -15.0572 82.6312
-268.1768 54.6211 -13.8031
-139.1647 -43.4062 -23.0400
-247.2951 17.9820 43.3314
-198.1964 85.9219 28.3590
-159.6056 50.7677 72.3294
-274.3891 39.1644 -2.6745
-167.5918 -2.4513 88.5961
-260.9236 28.5684 21.2767
-283.3651 13.2185 15.7795
-150.7770 32.8769 84.3798
-192.5006 88.0608 28.1259
-221.4712 43.9715 45.6827
-268.0422 55.9729 -19.8056
-192.0452 56.9512 51.8363
-219.5584 49.0961 40.9382
-139.1647 -43.4062 -23.0400
-222.6444 -10.1305 70.7207
-155.7203 59.9897 75.3809
-239.6111 -4.3306 56.2140
-275.6987 3.5661 25.4346
-173.4306 146.6737 28.5467
-156.9279 85.0971 54.9768
-194.3998 72.1340 43.8121
-200.5001 36.0237 58.4494
-173.3164 -4.6176 85.9861
-288.4092 -14.1974 24.3709
-257.4723 57.1581 -5.6157
-251.7685 61.9718 0.3862
-236.8546 48.4154 21.9857
-171.9284 42.4711 70.0557
-214.2684 59.5844 34.2738
-187.2830 -17.5146 83.6419
-171.0480 22.6535 80.4603
-215.4319 47.1453 45.2817
-139.1647 -43.4062 -23.0400
-221.4331 -4.8772 67.4630
-139.1647 -43.4062 -23.0400
-171.5764 36.0470 71.8886
-268.1455 3.3788 38.5371
-268.1165 57.4039 -26.7039
-247.5124 66.6352 -0.2057
-171.3729 -17.0875 91.4094
-202.0380 53.9211 52.4935
-231.9646 -17.9576 66.0835
-238.6245 58.8996 17.1982
-153.9804 135.5560 55.7206
-209.0599 43.6132 50.0319
-208.6637 21.2160 60.1594
-241.8438 103.1739 -49.6449
-186.4915 14.6202 75.4974
-151.2842 45.5498 77.4029
-161.1479 28.2732 82.6607
-217.7641 39.9479 50.4042
-240.7635 102.8582 -36.2770
-252.0888 45.6994 13.8286
-276.1527 -29.1524 35.1086
-236.7290 7.0154 56.4604
-242.4432 55.0344 13.6984
-220.3214 -4.6878 67.4249
-213.9497 52.0750 39.5815
-193.8376 -3.7862 77.7444
-165.4905 11.3023 87.1113
-182.9359 57.8742 57.5939
-206.7245 109.8681 -2.7313
-162.4142 48.2350 73.7321
-279.5897 6.0213 19.5537
-219.4243 55.3973 32.8722
-262.3297 83.5812 -49.1374
-178.8877 -6.0604 86.7068
-173.4613 71.4419 52.9784
-185.5475 116.1788 17.8698
-156.4155 48.5843 73.9578
-201.4647 51.2486 53.0876
-157.1065 43.0362 77.4385
-155.7462 138.9815 50.3876
-232.1357 39.3897 35.1662
-167.1392 52.7412 70.5101
-148.3799 80.4272 64.8302
-184.1378 47.1818 62.0412
-178.4439 82.6842 45.5517
-244.3768 36.2537 32.9684
-184.7982 45.2078 63.6500
-190.3421 33.9880 64.9151
-143.2878 51.5657 81.9616
-166.0340 -1.7681 91.6501
-188.4342 34.1885 68.3689
-139.1647 -43.4062 -23.0400
-207.9918 110.3362 -4.2127
-225.2913 104.9121 -15.5185
-189.2633 4.7743 81.5706
-219.8549 82.3082 6.5518
-124.4498 118.4343 86.5006
-182.4877 75.7350 47.3370
-244.2968 89.9296 -22.7789
-187.7477 51.9295 57.1286
-274.6183 -31.7709 36.1325
-282.4924 -15.1711 32.4740
-174.8524 140.5729 36.1863
-228.4612 -14.5042 69.2905
-273.1878 53.1491 -21.7587
-232.3840 18.9585 47.4886
-173.2629 -2.0483 84.8614
-242.6807 57.3748 14.3347
-150.1753 60.4531 75.7904
-281.3327 -24.1222 30.0710
-139.1647 -43.4062 -23.0400
-161.9962 45.9799 75.1990
-243.0810 101.8619 -41.2297
-208.7593 98.4650 2.5415
-177.1357 64.7484 58.0982
-155.3677 39.2408 79.9848
-228.1901 40.3057 35.8200
-214.9688 0.2749 68.5934
-130.9014 91.5942 84.3539
-168.7768 10.2184 87.6358
-136.0727 57.5658 79.2110
-182.2339 56.5613 58.2396
-266.6735 25.4369 19.9307
-191.3297 108.8912 11.7396
-175.0555 141.8725 34.1675
-228.9668 49.8698 35.1275
-268.6978 54.1939 -13.3300
-193.5809 2.7940 76.2890
-259.2995 73.4304 -32.7145
-165.8690 59.4707 65.0250
-268.1731 11.6467 29.5192
-268.2326 56.3822 -22.3104
-253.2731 -18.2178 56.8680
-268.1348 50.8419 -2.3381
-200.8689 109.0464 2.4742
-238.6173 65.7914 5.6419
-135.4566 65.9051 78.9046
-217.5795 5.7328 66.4512
-196.7882 6.9197 72.6697
-154.7170 30.7662 85.4299
-132.2526 70.4395 76.0627
-198.7253 16.3145 73.3144
-207.3118 59.2499 45.9859
-148.2143 71.7890 67.8004
-275.6329 20.9136 8.9331
-175.6956 82.7948 50.4464
-150.8183 45.2621 77.9056
-229.9170 5.3434 59.3046
-196.8934 10.8736 74.0914
-203.7412 -16.9231 80.6343
-172.6759 14.3416 85.6338
-251.9393 28.4442 27.7763
-291.3019 -12.3659 21.0459
-254.9118 51.8298 3.2639
-207.8006 54.0668 43.1886
-267.5113 11.4246 30.0993
-214.9764 64.8623 35.3559
-268.5390 55.7937 -20.4349
-229.1616 22.0527 53.3897
-192.9148 72.1757 46.4488
-287.2639 20.1334 3.9467
-159.6243 135.5064 52.5993
-253.6238 50.4895 5.8351
-227.0203 115.7935 -31.4158
-248.3767 -3.4162 53.1787
-150.6249 95.8545 57.8239
-221.1557 12.9973 63.4213
-186.3225 -18.8404 84.2064
-144.6267 72.5284 69.8267
-155.9487 45.7106 75.8223
-138.5211 63.2876 76.4533
-238.4433 53.9995 20.2833
-225.6601 42.7948 37.7678
-185.0910 61.9292 55.6225
-215.6295 29.5361 51.4608
-141.4417 56.5232 78.9414
-271.3567 33.2926 7.2632
-218.1566 45.5082 46.1857
-281.0170 28.0649 -4.0247
-179.3759 17.8184 76.9587
-242.5121 37.1711 33.4152
-186.8995 50.9449 58.1675
-181.8630 66.4088 55.6829
-234.8668 0.5127 62.5657
-220.2742 79.9924 10.0813
-154.3405 33.9041 83.4598
-225.3037 14.9855 57.0052
-192.5995 25.3095 68.2363
-206.6766 -8.4532 79.2773
-256.1011 28.7655 24.7513
-186.5957 52.2186 57.1062
-204.0689 -16.6482 80.1806
-260.8944 -21.3569 57.4894
-269.1998 -2.6677 35.5276
-240.8374 97.1338 -26.7825
-227.2378 95.8023 -3.6463
-139.1647 -43.4062 -23.0400
-194.6776 3.2496 74.9073
-209.1348 16.3243 63.8066
-210.9486 65.3931 36.4557
-185.1529 19.4634 72.5123
-151.6567 62.8996 74.1225
-280.8617 7.5785 18.0133
-233.5228 -12.7158 63.0637
-244.7223 22.9067 38.1241
-196.0072 87.2122 27.6654
-204.0610 116.1100 -8.1281
-171.1259 16.4892 84.3814
-142.9034 57.2828 78.3491
-194.8348 23.0602 69.5030
-171.9783 35.8749 71.9682
-169.6314 103.8000 34.6741
-155.1166 0.4413 91.6948
-281.6418 18.2884 9.5027
-139.1647 -43.4062 -23.0400
-175.6956 15.8762 82.5712
-214.3515 109.5057 -6.7677
-228.9684 114.4432 -32.9285
-187.6063 -8.5535 81.7322
-275.9141 -9.4349 40.5620
-207.7252 2.1299 72.9499
-219.0690 44.1842 47.4888
-273.4462 6.0820 30.4112
-139.1647 -43.4062 -23.0400
-228.7495 50.8232 34.6396
-141.8181 41.3050 88.6092
-242.4365 13.4981 49.5981
-181.0328 25.2213 77.3746
-207.3028 1.5193 73.3701
-136.0574 51.7043 82.4098
-254.8432 87.6260 -42.8893
-160.6279 -8.6192 95.7444
-216.5288 6.7740 68.7729
-178.3887 -1.2562 84.5973
-293.7390 -6.1064 20.3341
-258.6360 10.5448 35.1722
-225.4525 34.8977 43.9246
-280.2423 23.5473 2.7912
-235.8631 59.9860 17.4108
-160.5627 89.1101 50.6229
-200.1443 46.6479 53.3416
-184.0404 -16.7971 84.7132
-182.8763 21.3639 72.9090
-139.1647 -43.4062 -23.0400
-167.7193 79.8889 56.6455
-193.3856 4.0346 77.1925
-185.6058 26.7008 70.0248
-201.6581 113.7382 -4.6807
-139.1647 -43.4062 -23.0400
-173.6839 83.8978 51.9940
-230.0119 36.7369 39.5287
-229.7896 -6.0277 67.5759
-139.1647 -43.4062 -23.0400
-139.1647 -43.4062 -23.0400
-143.0860 76.3081 70.0910
-154.6857 76.9509 61.8054
-164.0730 -6.7914 92.8430
-250.7991 85.4026 -20.6836
-256.8578 9.4179 37.4143
-182.3608 -10.8091 88.8406
-247.2249 53.4485 5.8542
-248.8481 45.2107 17.2881
-252.2100 12.0504 39.3939
-270.9431 -15.6303 48.8463
-272.8339 -14.0789 46.8208
-236.9112 14.9568 49.4259
-164.1716 10.5830 87.4051
-139.1647 -43.4062 -23.0400
-139.1647 -43.4062 -23.0400
-206.6047 31.9182 60.8409
-199.8983 90.7542 21.3650
-239.5098 50.2207 17.4987
-214.7761 94.0675 5.5523
-151.6192 27.2251 87.9161
-228.9969 -15.9157 67.7099
-203.2186 83.4369 29.3374
-179.1330 107.9212 23.3169
-274.3210 40.1094 -6.9777
-244.9902 26.8538 32.9128
-244.3058 90.9474 -27.5542
-159.9161 59.5266 68.1051
-174.4875 72.9062 51.5491
-226.9731 51.3836 34.7039
-249.6386 26.4937 31.3137
-120.9275 112.6806 92.3439
-231.0863 31.9675 45.1972
-195.4539 137.2245 12.8418
-139.1647 -43.4062 -23.0400
-142.5248 117.2724 77.1343
-266.5872 26.2005 20.4269
-168.3618 80.0495 56.3913
-205.4994 73.3541 28.6296
-171.6830 35.7922 72.0429
-215.2351 -11.7134 72.2788
-236.7101 48.1872 22.4067
-267.6858 68.6727 -35.1390
-207.8489 76.7671 23.8543
-242.0539 103.7770 -55.9591
-175.6098 34.3159 72.6904
-159.7484 96.0299 47.3490
-243.7730 52.2751 10.7707
-135.1054 76.7189 71.9180
-277.1145 45.4273 -20.6087
-231.2815 109.3936 -34.9536
-213.8889 64.4965 36.3091
-268.2578 -1.0883 36.3381
-241.7839 48.3151 17.2523
-213.6320 101.2277 -4.1948
-193.9327 -0.4325 76.0538
-241.1181 26.0285 36.2487
-259.2838 65.7303 -11.1680
-181.3623 61.1424 60.4256
-210.2422 37.7591 54.9580
-198.1151 110.0668 2.9868
-184.0468 106.1813 20.6211
-139.1647 -43.4062 -23.0400
-210.7198 84.2735 20.5139
-145.9622 125.4469 68.3271
-180.3729 80.7820 43.4229
-200.8076 90.8971 20.7764
-280.8693 -17.0162 33.8939
-251.6668 30.9244 24.3399
-269.1015 8.8668 32.6944
-137.7443 72.2304 74.2282
-160.3553 45.7996 75.4364
-222.3793 72.7386 21.6135
-228.5709 45.2752 33.7546
-146.2677 63.5903 74.0830
-259.8933 12.4179 32.1988
-155.0906 40.6515 79.1074
-139.1647 -43.4062 -23.0400
-262.9480 -15.2748 51.1925
-258.9244 39.9067 8.9696
-257.9454 84.0212 -35.1916
-256.5277 24.4432 30.9009
-157.7417 13.2698 86.1317
-198.8190 62.4654 45.6104
-207.2440 35.4048 57.6370
-221.1271 30.7028 48.8580
-224.7457 53.5602 32.8839
-282.3915 10.1559 16.4781
-168.1873 -18.2652 91.8737
-242.4483 103.1283 -54.4950
-145.3932 119.9875 73.7753
-254.1544 31.1405 21.9707
-257.0866 14.1254 32.5845
-265.9906 54.8413 -8.3420
-209.9959 40.3508 52.7214
-200.9722 56.7522 50.2113
-170.3994 21.9218 80.9748
-160.0604 43.2978 77.0513
-255.0051 24.9115 30.9726
-206.9747 -2.6843 76.0712
-287.2414 15.4337 10.3074
-197.3525 63.7351 44.6251
-277.7811 32.8545 3.6930
-156.6868 72.2773 65.5816
-263.4773 10.8453 32.6373
-235.0994 86.9342 -8.8244
-167.2677 -17.3440 91.4562
-240.9185 95.1020 -27.6999
-269.5472 23.9257 14.1836
-291.7045 4.2918 10.4302
-143.4611 127.1465 67.5562
-224.4287 59.2914 25.6291
-216.9603 69.3269 28.7217
-229.0574 108.4568 -22.5104
-186.9564 15.8113 74.7043
-227.0746 0.6131 63.5462
-243.1029 91.6124 -27.1408
-233.4781 -1.1823 64.2142
-166.9977 78.4924 58.0380
-215.7008 98.0920 -0.8401
-179.0767 27.5613 76.7380
-168.4891 10.1301 87.6699
-159.5900 136.1174 51.7132
-220.0176 48.4357 41.5863
-265.8228 31.2643 13.0327
-233.0893 38.0629 36.4525
-149.8516 40.4205 79.8431
-223.9026 82.5310 3.2695
-206.6911 114.0151 -9.0771
-181.5699 64.8993 57.0725
-272.4648 41.7366 -9.1633
-198.8325 33.4286 61.0743
-180.2644 64.0282 58.1030
-145.4165 66.3671 72.3780
-183.1385 -17.1471 85.7092
-251.2834 -14.8285 60.0560
-270.9482 20.1876 12.7885
-189.8840 53.7404 55.1019
-160.2038 53.4260 70.5923
-167.2148 73.8513 61.3656
-245.7195 101.0940 -57.0999
-212.4371 15.7602 63.7824
-206.1325 -13.3264 78.0400
-185.8174 100.1518 27.7778
-161.6794 34.8137 82.3329
-158.4535 129.1426 61.3860
-248.0527 79.7036 -16.2147
-186.7471 102.3191 24.6403
-163.9793 59.9068 65.0225
-184.3101 101.9709 26.1487
-245.6662 46.3588 17.7260
-178.8544 62.0036 60.1714
-188.6219 -17.2674 83.5546
-155.3723 61.0493 75.0250
-139.1647 -43.4062 -23.0400
-261.2258 70.1328 -22.9210
-131.2492 62.1635 81.9719
-174.5349 18.2052 83.0346
-200.5530 30.6601 63.1692
-204.6390 71.7482 31.0613
-259.5800 50.2049 3.1165
-276.2168 -20.1514 39.2631
-197.9722 51.3998 55.5361
-182.4860 -18.1083 86.4262
-175.5128 23.5327 79.5679
-269.8594 34.0046 7.0414
-270.7878 -2.7226 34.3773
-174.8466 91.8438 43.3992
-139.1647 -43.4062 -23.0400
-197.2570 57.0279 50.7175
-179.0741 32.3991 73.6557
-215.0094 -16.2126 75.1635
-175.8239 84.0122 50.7690
-246.6774 101.2730 -63.3944
-246.4512 28.2872 30.4149
-260.7101 74.1388 -38.6519
-217.5664 93.8510 4.1858
-275.3703 -3.9712 33.7540
-250.1170 86.7871 -25.1322
-270.2082 26.4942 14.1761
-222.6610 -7.3055 68.9188
-174.0313 42.7688 67.9476
-277.5309 16.2318 14.5679
-265.6523 62.4076 -23.8926
-273.0757 42.1039 -11.8957
-201.6641 94.1822 15.7446
-206.7012 63.9674 40.1750
-222.9741 73.3650 20.0016
-244.1608 8.3774 51.9280
-177.8923 81.3294 45.9134
-132.2588 121.7815 81.9128
-213.1407 -3.8650 69.9502
-169.0051 80.2110 56.1363
-252.9276 90.2111 -48.4821
-227.2972 9.8166 55.8899
-232.3062 84.7273 -4.2398
-185.9578 105.2454 20.9107
-160.9446 72.8659 64.1769
-243.3208 41.0508 28.0537
-187.9954 -15.3840 82.7219
-162.1794 25.8191 80.3712
-260.6110 44.7254 8.1684
-209.1723 71.3329 29.5856
-181.1237 72.0914 50.8231
-240.9178 76.9812 -4.8641
-207.8678 37.6010 55.5745
-246.3647 42.0662 24.9765
-129.0935 109.7817 87.7874
-198.1080 80.1784 35.8048
-251.5873 69.5851 -6.5143
-268.0176 -0.3008 37.1040
-199.5929 -11.3954 81.1584
-215.3054 55.2116 34.9364
-139.1647 -43.4062 -23.0400
-238.0048 80.9567 -1.8892
-243.2379 -3.3998 54.1970
-148.0986 17.7636 92.2129
-241.4791 59.0601 14.6433
-230.3878 -13.1746 66.4936
-243.9868 19.1740 43.2637
-217.8086 35.6519 48.3892
-269.4618 -12.3853 46.8623
-234.5175 11.3698 53.0686
-199.5124 12.3635 70.1460
-161.5199 -19.3067 92.6955
-226.7680 74.6279 14.6886
-216.6261 -3.5974 67.1593
-254.3801 87.7734 -42.2184
-266.4460 -2.7855 38.9464
-232.2494 80.6029 1.6229
-244.2450 42.3190 26.0063
-256.9593 84.4816 -34.4459
-245.2137 20.8125 40.6069
-191.2098 76.8755 43.1218
-236.6743 60.3884 16.0358
-272.3347 -25.3938 42.5167
-139.1647 -43.4062 -23.0400
-269.6006 24.5307 14.3622
-208.7791 68.0762 33.9579
-244.7858 99.7723 -33.4782
-222.6326 80.2436 7.7527
-244.3666 22.4383 38.8863
-148.5764 94.3370 60.0061
-248.6614 99.2110 -53.3706
-177.9966 90.1179 44.4167
-210.6266 -5.4166 73.6828
-165.0416 -4.2819 92.2665
-233.9435 65.6289 8.6595
-288.1688 -9.7578 26.6585
-173.9224 139.2731 38.6407
-258.2400 34.3057 12.9679
-197.8898 49.4755 57.2505
-233.3889 12.8519 51.9897
-139.1647 -43.4062 -23.0400
-175.7623 -4.8296 86.1178
-207.8032 101.4600 2.2583
-165.7180 3.2597 90.6301
-166.8853 -9.5016 88.4411
-290.3267 -0.6561 18.1555
-215.2470 -10.8807 71.7473
-206.9531 -10.7194 77.7684
-185.5781 42.9958 65.4447
-171.7305 86.2148 50.2130
-272.6643 11.7138 25.9201
-230.0924 -9.4683 68.6849
-195.9872 47.7338 59.1700
-186.8998 -2.6896 85.3630
-253.0590 73.3724 -14.0860
-141.0241 62.3415 75.2676
-194.5012 49.3178 58.0715
-270.5885 56.5157 -29.9523
-154.0037 128.8275 63.0217
-222.5402 2.9594 62.3883
-237.8981 9.2065 54.2942
-139.1647 -43.4062 -23.0400
-188.1615 80.0622 40.3666
-175.8692 78.8948 48.3825
-262.4935 5.0115 40.5996
-263.3821 71.9417 -37.7537
-248.2592 85.7934 -15.0617
-213.4937 49.9686 42.4997
-203.9602 21.5125 66.4289
-200.2119 58.2624 49.0336
-253.6862 87.9950 -41.2174
-159.4205 18.1059 84.2069
-139.1647 -43.4062 -23.0400
-221.3075 85.8288 2.7958
-246.9873 21.7574 38.6014
-245.8763 91.5128 -34.5483
-230.1646 113.7208 -36.1820
-190.1541 -17.5691 83.7101
-125.0042 117.3188 87.3780
-142.2337 71.1165 73.0274
-240.1671 72.4939 -3.9257
-226.4458 40.6720 36.8102
-206.6140 4.1691 71.7340
-207.4931 97.1732 5.6791
-125.2486 125.9223 79.6771
-275.1030 32.6025 6.2752
-245.4868 29.1196 30.2347
-172.0049 75.4959 53.6627
-228.6353 110.8552 -29.6527
-170.8185 72.7017 54.6261
-165.0675 9.0656 88.0819
-171.0888 61.1458 62.4943
-207.4900 -4.0182 76.8823
-186.0952 -10.0241 83.7076
-205.7065 -14.2642 78.3682
-171.0674 146.8103 29.4994
-176.0294 19.9947 81.7840
-174.6239 -12.1048 89.2819
-277.4700 38.4348 -8.4483
-157.3611 70.9361 66.6442
-248.7333 19.3970 40.8687
-139.1647 -43.4062 -23.0400
-204.1434 79.6802 30.0369
-178.6877 -4.6563 86.0894
-219.2066 -7.2668 69.1508
-277.4712 30.2225 3.0529
-175.0948 54.4810 67.5588
-139.9379 97.1280 73.7546
-187.4442 51.8645 57.2472
-161.0865 23.7239 81.5270
-215.1260 65.6180 34.3154
-274.0376 22.0024 8.4911
-237.2929 24.8122 40.8910
-245.2032 -4.2099 54.5167
-234.7247 65.4209 8.4186
-182.9766 -3.0185 85.4430
-253.5412 89.1583 -46.2100
-166.1765 -8.3472 88.9006
-215.9456 94.1513 4.6097
-203.2537 15.2659 65.7695
-240.0442 -2.2289 55.1153
-177.8073 100.8341 30.4355
-207.3965 46.2010 48.0837
-139.1647 -43.4062 -23.0400
-186.9388 96.8991 31.4190
-184.4166 69.0532 52.8381
-215.1438 94.3101 4.8197
-179.1312 -15.7222 90.9370
-171.2703 56.7243 66.3539
-165.2815 -10.7067 89.6263
-295.0884 -6.8564 18.0972
-222.1253 44.5116 44.7731
-267.1726 58.4904 -26.7587
-212.9720 -1.4809 71.3222
-235.1911 101.4001 -15.7403
-228.1794 88.9038 -7.0850
-207.4790 95.5548 8.6338
-168.4032 102.2789 36.6707
-160.2185 73.5970 63.6545
-194.2636 51.1606 56.4934
-263.5044 39.3269 3.2669
-240.5967 36.8357 34.6984
-223.4710 60.1481 24.9478
-204.2320 -0.5619 74.9243
-162.9479 7.1944 88.8663
-197.1444 -16.4405 83.3254
-268.6053 55.1744 -17.6991
-202.2196 102.1953 12.4329
-267.3287 69.3157 -37.0971
-194.5172 70.6633 42.9422
-271.8724 36.2948 2.7468
-271.3048 4.4456 33.4486
-212.2569 5.2498 70.6266
-177.6043 35.1475 72.0132
-228.3130 106.9340 -19.9649
-257.0648 33.5655 15.2476
-236.9252 86.1244 -8.6346
-171.1707 33.0957 73.7990
-169.0593 61.8291 62.3022
-189.6775 73.6374 47.7384
-162.7668 37.7952 80.3531
-249.0602 -14.3481 62.5216
-151.8297 18.4485 91.9712
-213.7715 71.9367 26.7685
-192.6390 48.9329 58.7858
-223.3909 70.0045 22.8888
-157.0840 -9.4723 96.0608
-190.7409 52.0329 56.4338
-179.1850 23.3342 79.4232
-264.2679 42.0493 0.9557
-285.8972 -14.5784 27.7917
-257.4661 10.5869 35.6367
-256.1010 64.9386 -5.9142
-209.1255 34.4195 58.1281
-196.5854 74.0472 40.8215
-210.2525 80.8386 19.8574
-225.6823 -1.7509 65.1556
-257.0859 1.2554 47.3080
-217.8829 51.9726 37.9712
-247.3900 73.5977 -9.9961
-154.6719 44.7300 76.5420
-283.5406 28.4869 -8.4290
-139.1647 -43.4062 -23.0400
-164.1361 16.5897 84.7807
-203.9315 97.8607 8.4834
-144.1044 48.9281 83.5822
-220.5560 34.3312 45.9850
-169.8613 20.9388 81.6412
-183.0584 49.3369 60.3593
-153.9308 57.6491 77.2984
-242.2861 26.7183 34.7606
-184.5786 13.9195 76.0856
-153.4222 135.2604 56.4746
-245.3676 14.2339 48.3593
-282.5661 36.1123 -12.6901
-182.3651 30.1178 74.8661
-190.3037 9.1390 78.7107
-163.5537 26.4420 79.1190
-276.6754 18.2130 12.2104
-185.5013 35.8356 70.9914
-281.0086 35.8945 -6.9626
-192.4248 111.3462 7.0768
-160.3214 15.6330 85.1395
-262.8391 70.0720 -27.3953
-264.8956 -23.0604 54.6216
-134.4181 130.0374 74.1255
-176.9216 8.1280 80.4274
-240.4956 60.1277 13.4807
-214.9154 59.3703 33.0366
-283.1667 -16.9368 30.7697
-176.1571 77.4512 48.0997
-237.4574 53.7532 21.9103
-238.7986 94.7792 -23.5993
-229.4591 -11.5123 68.8799
-260.0616 32.7522 14.3472
-209.4856 115.0864 -12.4040
-260.2756 44.3669 8.5980
-271.8088 52.0972 -12.6693
-222.2112 51.4301 36.7534
-271.0538 16.3497 18.7596
-256.2633 22.7442 33.2102
-180.8817 -17.7385 89.4211
-155.6111 25.7177 88.5782
-209.3962 -11.3453 73.7976
-277.3650 -12.5288 41.1709
-167.3618 27.5496 77.6165
-199.0933 93.3987 18.3108
-251.3061 88.2238 -35.3080
-154.8164 29.0266 86.5303
-154.4008 21.2553 90.7838
-198.5126 18.0158 72.4451
-266.9072 51.2971 -2.2626
-239.5352 -3.0927 55.7549
-235.7696 65.7011 7.2594
-212.3075 91.2757 12.5872
-151.5902 104.1829 60.3400
-276.9137 -6.4362 36.2501
-139.1647 -43.4062 -23.0400
-174.1435 33.0616 73.5987
-213.1860 36.1537 55.7827
-255.1695 57.8479 -4.9446
-176.1765 49.8354 65.8864
-184.3317 20.1501 72.3212
-202.7453 -2.4213 76.2193
-178.7484 106.7830 24.0709
-180.1681 66.3044 56.1161
-217.8340 17.6603 61.0194
-228.8951 88.5915 -7.3701
-254.4507 -11.8733 55.8044
-154.9953 131.0041 60.6575
-263.4489 70.4971 -31.1853
-278.6797 1.8782 22.5859
-161.8736 -22.9206 93.0737
-267.5731 55.9050 -18.0879
-176.3229 44.0712 66.4708
-292.3353 5.2582 8.7319
-257.7800 3.8231 44.2240
-251.2478 68.9949 -5.5011
-172.5522 -11.1889 88.8482
-191.2601 30.5693 65.1050
-139.1647 -43.4062 -23.0400
-272.3717 38.3280 -0.3905
-253.1324 54.9125 -0.1637
-212.0364 77.3153 20.5897
-234.4621 24.4552 45.1287
-246.8232 -12.8014 61.7014
-179.3378 94.9060 37.3385
-252.8925 34.1423 18.4976
-129.8716 128.3775 76.5396
-256.3013 -0.7024 49.1925
-190.6054 0.0721 80.3075
-139.1647 -43.4062 -23.0400
-188.8914 -17.2186 83.5374
-260.0036 -11.9126 48.9439
-263.7795 52.3371 -2.0973
-244.2710 79.2058 -9.7726
-159.4354 69.5910 67.4161
-139.1647 -43.4062 -23.0400
-282.7084 -16.5039 31.5867
-196.0107 101.0278 21.5262
-220.1709 42.8961 47.4902
-215.0258 76.4699 20.3521
-208.4663 22.4059 59.7579
-177.3897 46.8222 64.2237
-139.1647 -43.4062 -23.0400
-191.2554 40.9319 66.1234
-208.7590 -7.6784 75.9557
-182.9693 98.9151 30.5858
-274.4459 -25.8550 39.1779
-201.1608 24.4639 68.1394
-255.7221 88.1009 -49.0012
-279.9071 17.1144 12.0737
-239.6064 -6.5880 57.7390
-218.9851 -4.7975 67.5942
-165.7567 143.3459 37.5092
-242.4933 -12.4827 61.8182
-241.0832 101.0847 -25.5318
-223.0103 56.9634 29.2642
-161.7014 17.9001 84.1705
-185.4744 -9.5750 85.0044
-238.1492 81.2565 -2.3888
-254.9306 85.6888 -34.1235
-181.1130 96.1639 34.8782
-177.0890 13.8226 79.1891
-128.6906 124.4348 80.2894
-226.7730 20.9983 56.2718
-218.9178 112.3889 -13.9435
-264.1877 26.8295 21.8524
-139.1647 -43.4062 -23.0400
-207.4405 89.1951 20.0235
-244.6890 92.7642 -34.3907
-263.7350 56.2559 -8.3313
-254.6700 -3.4851 51.9748
-271.4801 53.0527 -16.2105
-219.6716 4.0322 62.8638
-166.0167 -7.3751 89.1533
-222.9711 34.3801 45.2443
-240.0087 92.1700 -20.6989
-157.6919 82.7858 55.9344
-187.6881 97.2679 30.6010
-160.4612 89.6782 50.5479
-239.0227 92.8886 -21.1696
-243.1277 72.9235 -6.7842
-207.6977 100.5747 2.4087
-228.5811 13.6457 52.7139
-214.2671 70.7419 28.0907
-185.8501 85.9833 34.9089
-175.9162 -10.8946 88.7731
-235.0524 14.8065 49.9326
-213.1239 77.2212 20.2274
-204.9195 35.2620 58.2306
-210.8788 96.5459 4.1344
-225.6662 85.2442 -1.4917
-184.5726 85.1409 36.7106
-143.2762 127.6429 67.3244
-225.3021 46.7123 40.1647
-238.2926 104.4501 -37.4945
-233.8076 48.0308 25.9848
-208.6972 42.2195 51.3341
-283.5096 -27.4746 25.6008
-191.8366 73.9571 46.6052
-139.1647 -43.4062 -23.0400
-204.8375 97.3795 8.0098
-272.9770 -1.4720 31.6248
-150.5655 14.2033 93.8079
-198.7131 73.6713 36.9013
-181.8281 64.3839 57.4748
-159.1146 14.6294 85.5591
-224.7411 60.3009 24.1853
-146.1636 24.0784 89.4233
-176.1773 9.7451 80.0112
-139.1647 -43.4062 -23.0400
-161.1313 -22.2172 93.1258
-235.4832 24.5250 43.3600
-145.4368 42.0585 85.4269
-228.3673 15.9795 52.3247
-139.1647 -43.4062 -23.0400
-266.1918 15.0517 24.9823
-164.0853 70.9411 65.4014
-179.8992 103.7019 25.9055
-213.0740 6.7561 69.6068
-231.6929 2.5380 61.4195
-250.9228 13.3260 42.2381
-144.8064 51.3710 81.9735
-243.2970 53.7738 11.6252
-253.5972 67.6932 -4.8889
-206.7956 69.0652 33.5621
-263.1049 -5.1425 43.6773
-228.2706 100.2227 -10.4442
-197.0529 66.0647 41.7553
-274.6982 -24.5284 39.4326
-142.3906 31.0434 86.8444
-190.2439 1.7192 81.6872
-218.7986 -14.3077 73.6685
-269.6545 66.8345 -32.3376
-205.6258 6.7454 70.1672
-197.6881 89.5994 23.8382
-261.4383 10.9227 33.4420
-234.8335 -0.8416 63.7658
-144.1479 64.2889 73.7956
-209.5392 112.9511 -9.1584
-233.7123 10.0081 54.4306
-160.5023 15.9939 84.9846
-182.4143 70.9260 51.5904
-202.6570 43.1397 51.7388
-227.0682 77.8926 8.5074
-168.1114 -15.9240 90.8485
-252.8729 23.6906 33.4943
-206.6300 33.2206 59.6870
-220.0030 -9.4422 70.4777
-163.9490 75.3492 61.4116
-204.7450 28.2517 64.4486
-207.4545 64.2872 39.4290
-152.3772 92.1898 54.0999
-194.4728 -13.6634 82.0702
-150.1379 88.9693 56.7494
-283.7048 -4.9774 30.8453
-139.1647 -43.4062 -23.0400
-240.0586 42.9792 27.0181
-165.0005 28.2021 77.7961
-254.7188 43.9199 14.9773
-172.8783 145.1662 30.7767
-222.5946 8.7113 59.4730
-194.8146 20.5647 71.0937
-236.8641 104.7293 -31.2749
-284.1565 -12.2531 31.3354
-168.7024 47.3460 73.8282
-219.5977 91.6629 6.2188
-185.2162 46.3468 62.5609
-258.2974 42.2534 11.1326
-237.7956 -2.6614 58.1733
-220.4859 60.4494 26.2959
-216.1448 77.6250 17.6646
-257.1591 -7.1055 53.1788
-242.6154 -17.8306 65.2163
-254.6964 -11.6132 55.4885
-230.3105 -9.1856 68.4278
-200.0325 26.4686 66.9464
-221.7845 25.1018 53.6627
-234.3207 105.4353 -24.4697
-167.1428 23.5742 80.1654
-258.1193 73.8269 -31.1024
-190.5562 -2.8485 79.1797
-208.6720 63.4520 39.9664
-146.0183 35.5351 83.4436
-265.1961 55.8333 -10.6769
-156.2293 63.3116 73.5205
-161.9332 38.1531 80.1874
-193.7708 52.1404 55.7280
-178.7556 33.1709 73.1875
-254.5546 7.1318 41.3843
-206.3651 105.9029 3.6980
-173.7749 9.4656 83.0675
-199.4397 58.3654 49.0985
-244.2694 102.8144 -60.5452
-139.1647 -43.4062 -23.0400
-244.9301 24.5348 35.9313
-189.2494 36.7910 68.1049
-179.4600 70.5050 52.5562
-267.0792 41.7462 -2.0145
-243.6884 31.3415 31.9679
-177.1760 8.1667 80.3146
-246.5746 1.6967 49.0311
-197.4932 -14.6335 82.5408
-205.8875 105.2466 5.4776
-260.4815 55.6622 -5.0754
-251.5861 28.9099 27.3323
-214.0570 30.5635 52.7878
-226.2399 107.0850 -19.0912
-147.3514 40.0843 81.5945
-182.6619 5.8760 81.3548
-235.0717 63.1120 12.3478
-147.5725 136.2070 61.8110
-246.7982 91.6329 -36.9629
-153.1673 16.9142 91.6095
-228.3963 11.9679 53.8442
-209.7596 23.1819 58.3833
-135.7744 110.2272 85.4837
-248.9613 98.0981 -41.1026
-228.0204 22.1943 54.9655
-185.0410 5.2899 81.5531
-281.8603 34.9720 -5.1300
-224.7572 -14.0508 73.0632
-273.6991 8.9923 30.0530
-147.3744 21.9574 90.3689
-184.0951 102.8170 25.1777
-223.3253 57.4775 28.4617
-142.7781 83.6195 63.9816
-205.6773 72.1263 30.1128
-208.7881 -13.1640 74.4310
-285.5990 12.7285 11.9833
-272.8795 51.1036 -11.1600
-257.2495 85.8865 -41.8396
-183.7450 3.8816 82.4373
-223.6743 10.1029 58.1346
-188.5839 7.9587 79.5901
-151.7449 28.4396 87.1333
-197.6841 78.8496 37.7054
-139.1647 -43.4062 -23.0400
-256.3763 87.5244 -47.9299
-190.7619 76.5797 43.7017
-226.8202 7.9929 57.5930
-255.0509 63.2910 -4.8055
-257.5418 61.4556 -9.5439
-200.8351 -5.4476 78.2889
-247.5251 100.2569 -61.0687
-261.1399 -8.7358 46.3603
-163.0079 137.6584 47.4945
-176.6722 102.1760 29.3290
-179.6997 15.1575 76.2710
-201.3736 -15.2505 82.8720
-221.9641 94.5791 0.8509
-247.0775 92.0317 -38.4422
-196.2418 27.2775 66.7126
-262.5684 72.6043 -38.4564
-219.1094 -15.1473 74.1807
-174.1697 60.4108 62.5195
-245.2244 100.6678 -42.3850
-219.2429 73.4587 22.3670
-206.7056 73.0047 28.5241
-216.9877 100.9806 -5.6031
-240.4306 73.8358 -4.7870
-142.9072 50.8127 82.4696
-194.8193 77.7643 40.3750
-168.9665 21.5433 81.3230
-218.8931 74.4456 21.2474
-187.4465 29.3060 68.0638
-246.1752 97.5745 -35.9937
-282.8903 -27.3784 26.5002
-181.7563 103.3690 25.5094
-149.3456 61.5257 75.1689
-232.6368 86.1927 -6.4855
-227.2257 14.5734 53.7370
-174.4603 36.2825 71.5232
-168.8658 5.7234 89.6029
-240.3571 103.5389 -42.0897
-196.8228 7.6251 72.7516
-150.1969 34.1858 83.5896
-182.4879 5.5640 81.5666
-244.5098 99.9944 -33.7413
-222.4010 97.2662 -3.1813
-200.8118 102.8670 15.0654
-177.2317 62.4932 60.0665
-260.5016 70.3865 -21.9729
-217.1381 68.0933 30.2333
-214.5103 -2.5225 68.3739
-212.5424 42.4199 50.3848
-211.9931 24.0835 56.6900
-166.2380 74.4022 61.8890
-263.9800 -6.3508 42.7071
-291.6737 16.0676 2.7795
-219.8805 75.9209 17.8035
-200.4175 67.1328 38.8846
-210.8470 23.2160 57.8101
-143.7113 36.0980 85.7822
-204.5403 -2.1728 75.9270
-179.7693 33.1562 73.1220
-251.7997 37.3595 20.3813
-191.4658 -14.4658 82.3744
-139.1647 -43.4062 -23.0400
-156.7879 20.1466 86.6836
-174.3186 9.6480 82.1913
-139.1647 -43.4062 -23.0400
-228.9942 -6.9344 68.2129
-265.7166 69.3404 -32.4570
-253.4390 7.1821 41.8141
-178.9908 17.1519 77.3372
-172.7491 70.0836 54.2825
-233.8945 53.9502 28.2800
-254.9996 47.4076 9.4732
-124.7327 92.1387 93.7216
-121.6029 119.5938 86.0570
-257.3174 36.9003 11.2028
-221.5728 49.0298 40.1314
-175.1231 29.9248 75.5241
-277.4876 38.1959 -7.3615
-240.8702 54.7270 16.3329
-260.1620 69.4031 -16.3654
-139.1647 -43.4062 -23.0400
-238.8793 1.8372 58.2907
-235.8359 43.8413 27.7850
-139.1647 -43.4062 -23.0400
-150.9966 30.8755 85.6379
-215.1466 -10.6114 71.5832
-139.1647 -43.4062 -23.0400
-222.4399 75.2758 16.9477
-212.5351 40.2860 52.2685
-183.3880 30.0941 74.8057
-199.9178 12.9747 69.7068
-245.2979 92.2556 -34.7555
-156.6187 64.0759 72.9602
-243.7493 37.4739 32.4754
-254.8605 85.9801 -35.2746
-194.5411 98.1950 24.1660
-201.9250 87.7925 24.2880
-236.0294 59.1559 18.7890
-179.2372 61.2389 60.7684
-151.0735 32.9625 84.3031
-258.2615 69.7193 -12.2528
-246.8494 0.3638 50.1516
-175.7479 -13.5815 89.9457
-283.6029 -9.3637 33.4781
-263.8911 21.6846 23.1444
-214.0821 -2.0145 69.1248
-188.0895 71.7310 49.7385
-249.6608 91.9907 -43.7883
-192.1175 2.5924 78.7780
-182.0168 83.5304 40.3070
-254.3298 72.0845 -11.7823
-167.2673 18.8512 83.1648
-198.2253 74.9422 38.3340
-176.8886 94.6343 38.7420
-197.3199 108.3101 7.2972
-139.1647 -43.4062 -23.0400
-264.8054 67.7576 -22.3567
-221.8858 28.4827 50.6620
-148.1908 130.1506 63.1963
-149.8585 65.3668 72.6851
-156.8857 53.8559 71.4417
-226.7468 73.3401 17.0495
-214.1130 34.9167 54.5728
-175.4314 124.3421 35.3916
-204.5486 76.2321 27.9977
-235.1652 46.8475 24.8018
-262.5026 72.8889 -39.5957
-209.6214 93.0665 11.4599
-225.9353 103.1508 -13.3635
-253.0801 72.8501 -11.9168
-139.1647 -43.4062 -23.0400
-168.2613 -15.5875 90.7037
-214.5200 38.5087 53.4374
-180.0324 138.3586 34.9170
-149.3406 66.5611 71.9630
-261.1649 -11.2104 47.8337
-188.5334 -17.8574 83.8110
-188.8062 32.7270 67.0542
-223.2346 -16.4277 74.6913
-167.6553 96.9681 41.2699
-162.3011 134.2791 52.8910
-244.3970 -15.7714 63.7728
-167.0128 81.2443 55.5304
-234.0965 80.6162 0.6363
-166.1798 62.9135 61.9661
-176.2762 35.9278 71.6141
-156.5511 74.6301 63.4974
-203.2312 -15.0839 82.3623
-243.5820 55.1261 11.7323
-186.6197 71.0679 50.6188
-147.2978 19.7004 91.3541
-243.0781 44.0479 23.9833
-185.4493 71.9702 50.0591
-153.7620 126.0346 65.7965
-203.3409 46.7115 49.0748
-265.4346 48.2963 1.2744
-232.7623 105.3799 -20.0990
-239.5358 79.6609 -1.2199
-202.9408 -2.1187 76.0119
-189.6712 106.7102 16.8129
-253.8924 37.5469 16.7767
-139.1647 -43.4062 -23.0400
-178.0207 -1.9296 84.8858
-283.2878 -30.6189 24.5168
-182.0643 80.1879 42.9090
-198.4981 29.5503 64.5622
-287.6888 -22.3228 21.8412
-160.2992 -7.8092 95.3848
-226.6658 60.5346 23.0267
-204.7801 37.5684 56.2245
-212.4486 93.0985 9.1600
-257.6542 19.6835 33.2371
-242.9373 101.4859 -36.7984
-164.7021 92.2576 46.2319
-180.6432 75.8690 47.5902
-252.0605 97.1453 -57.0159
-220.4926 100.1689 -6.2903
-141.4955 58.8340 77.4660
-240.4394 87.6713 -12.6604
-150.8606 126.6824 65.8958
-181.2372 6.3809 81.1379
-186.9163 -1.8014 84.9748
-277.5132 27.3436 1.8223
-142.7781 83.6195 63.9816
-161.5333 10.0338 87.6041
-180.6284 102.0527 27.6622
-164.4065 75.1593 61.5076
-272.8468 29.5055 10.8818
-200.2678 67.3559 38.6636
-297.2170 -1.1420 15.2286
-161.2174 72.3389 64.6108
-145.0963 77.2188 68.7217
-278.4573 31.9855 2.1092
-146.0797 27.5856 87.8892
-180.1211 25.8401 77.7574
-188.2149 16.6371 74.0850
-180.0229 101.9737 28.0276
-174.5663 15.1228 84.2224
-243.3984 28.4974 32.3597
-273.3988 -14.9280 45.8771
-248.0656 77.5808 -16.1523
-180.5213 -10.6458 88.7391
-237.2329 38.5384 33.9987
-215.8942 25.5837 54.4257
-148.9832 131.8900 61.3068
-181.2088 39.6065 68.9059
-123.4900 108.7257 92.1377
-230.4504 107.9853 -24.2758
-272.9249 6.6716 31.5959
-240.7636 101.4201 -26.3749
-139.1647 -43.4062 -23.0400
-195.9271 40.8421 58.1590
-237.8120 87.4523 -10.9767
-214.8362 48.4757 43.8301
-197.9407 40.7592 55.5830
-218.5862 95.7185 1.0081
-269.3539 12.7822 26.6032
-167.4419 139.2258 42.5909
-269.6088 41.9878 -4.1180
-223.4992 75.7011 15.3326
-139.1647 -43.4062 -23.0400
-199.9294 77.0931 36.2995
-281.3859 -7.7448 35.8759
-281.0433 -22.1813 31.3289
-296.0430 -4.0627 17.8212
-206.4065 85.2180 25.6208
-187.6813 -10.1380 81.5331
-204.1707 48.0037 47.8916
-218.2201 111.9557 -12.8584
-193.1548 53.3670 54.7713
-205.2229 92.6070 15.7858
-233.3683 -3.5595 65.5733
-232.2854 49.0988 28.9298
-187.8299 81.5406 38.6074
-165.9029 36.9000 78.1668
-180.5031 103.7835 25.5376
-228.2635 82.4095 1.1564
-274.3680 -23.1639 40.5628
-220.3524 55.9657 31.7281
-280.6351 -8.7921 37.2984
-210.1495 56.8895 40.3201
-244.4907 10.0549 52.1027
-278.6370 26.7234 0.3502
-258.2256 74.9273 -34.4788
-229.5876 69.4118 11.6978
-195.9749 70.6652 40.3734
-209.9263 9.6079 68.0246
-238.9466 90.9586 -16.5298
-159.2087 -0.6018 92.2150
-139.1647 -43.4062 -23.0400
-187.4859 20.8240 71.4725
-182.7578 -12.7219 88.3750
-287.4105 21.8620 -3.1417
-251.5730 3.4015 46.5229
-155.5639 133.7169 57.5498
-249.7193 91.4985 -43.4986
-139.1647 -43.4062 -23.0400
-290.5619 -1.4447 19.1480
-183.8297 55.7416 55.8027
-252.3177 -19.2446 58.0807
-189.6949 -3.3601 80.3656
-189.7576 59.4704 50.0990
-144.3681 54.7866 79.8298
-167.1936 31.3128 75.5941
-204.1457 17.8979 64.8407
-214.2064 0.2697 69.9351
-133.0436 62.2984 81.6881
-229.5717 -13.5213 67.7759
-237.7762 57.8784 19.7284
-254.1950 -11.6678 56.3478
-232.4282 68.1192 6.9952
-247.3224 27.6122 30.8990
-155.6107 66.7785 70.7453
-263.5969 -8.2953 44.5450
-204.5519 3.5874 72.2583
-195.7364 34.4003 60.8412
-206.9233 -7.7941 79.1396
-201.1840 89.8565 21.9517
-269.4372 65.4267 -29.2040
-162.3284 52.5199 71.0104
-262.7247 12.3297 31.0567
-179.7238 -6.7286 87.0127
-210.2513 9.6589 67.9680
-157.5150 67.1565 70.0057
-235.9157 -15.3868 64.1540
-213.7888 116.4913 -17.1512
-211.7232 8.5043 68.5939
-242.3624 98.4247 -28.8890
-206.1651 105.2359 5.2390
-159.0216 2.9347 90.6662
-195.4163 14.0474 75.2039
-185.2022 -0.4381 84.3505
-245.2955 101.1982 -50.7335
-211.8734 55.8572 37.4457
-237.6426 1.3937 60.2708
-209.6130 28.3060 59.5260
-212.4631 67.5284 33.0322
-253.4722 30.5884 23.5172
-139.1647 -43.4062 -23.0400
-290.5913 -11.0098 22.6503
-131.3957 69.8782 76.5464
-194.5022 136.2466 13.7756
-172.0974 84.1054 52.0716
-172.1006 46.2944 71.4756
-219.7613 5.0415 62.7821
-276.2339 18.7134 11.7330
-195.0298 39.4284 59.1036
-190.0802 -10.1672 80.4817
-224.8178 41.3405 38.7451
-257.3657 -20.1356 57.1785
-210.6476 97.5091 2.6324
-271.6964 -28.3582 42.0636
-274.2583 46.3670 -15.1500
-213.6716 5.1625 70.5772
-233.7893 60.0217 18.9900
-256.1077 12.7837 34.1959
-152.7742 108.4799 60.6709
-251.6668 30.9244 24.3399
-256.7889 67.2049 -6.1053
-269.5888 12.5413 26.8552
-199.0733 13.9079 71.6161
-250.3598 48.3101 10.6294
-139.1647 -43.4062 -23.0400
-168.6617 -7.5988 87.3936
-250.0578 98.3198 -51.7932
-267.7005 32.0106 10.9931
-183.2831 68.4888 53.5638
-265.5580 -11.2511 46.7242
-233.0914 23.1128 46.9398
-272.4589 -15.6923 46.9059
-233.4976 75.3306 7.4728
-280.1165 37.4139 -11.5276
-251.7704 84.9378 -21.3653
-119.2879 113.2024 92.1954
-262.6783 11.3616 32.3259
-183.0497 104.4347 23.5995
-177.6443 2.5856 82.9047
-269.4445 56.1898 -25.0048
-273.8354 5.6380 29.5249
-170.0824 18.1894 83.3762
-159.3202 39.4892 79.5315
-166.9051 64.2720 60.7553
-286.1851 -11.3542 28.7925
-260.6649 84.1444 -44.2690
-180.3766 33.3182 72.9739
-145.1942 55.3558 79.4060
-251.8622 33.5863 20.2536
-283.6136 -13.4030 31.6721
-211.5188 13.7193 65.2883
-235.0282 16.3694 48.5603
-260.2180 46.0017 8.7289
-219.5615 73.5044 22.1663
-234.3818 57.7535 22.6464
-261.1826 48.8113 4.2495
-188.6006 17.2683 73.6543
-175.5303 85.3377 50.3730
-200.5714 10.6552 68.6492
-220.0042 -6.6525 68.7002
-196.7032 63.0893 45.4873
-206.8377 98.3812 4.6960
-198.9735 81.8328 33.2885
-218.3802 108.0332 -13.3051
-236.8866 17.3192 47.3491
-269.8982 7.3179 34.3389
-223.9796 68.8526 21.3317
-212.5582 15.5200 63.9698
-278.8624 31.4638 1.1598
-215.3536 33.6330 51.8072
-190.6613 -9.2092 80.0649
-236.0231 83.4102 -4.3235
-273.6788 -28.2228 39.1948
-233.7121 -14.2244 63.6625
-266.6909 63.2721 -25.3338
-211.0821 56.2908 38.4649
-227.3434 94.0403 -4.3889
-264.4978 70.9169 -36.2455
-233.4540 23.8273 46.6227
-277.8249 6.9398 23.0788
-263.0101 26.7276 22.9745
-218.1096 80.8352 10.2641
-178.1308 109.9114 25.4942
-155.3680 43.1283 77.5098
-177.9252 2.6609 82.8763
-229.8606 -8.3382 69.0435
-161.0441 3.2904 90.5422
-242.4329 70.4081 -2.8885
-267.4658 14.0667 25.7638
