# .PCD v.7 - Point Cloud Data file format
VERSION .7
FIELDS x y z
SIZE 4 4 4
TYPE F F F
COUNT 1 1 1
WIDTH 1821
HEIGHT 1
VIEWPOINT 0 0 0 1 0 0 0
POINTS 1821
DATA ascii
-56,7544 120,4382 88,8419
-41,0871 109,3074 31,7059
-35,3680 109,3074 38,4729
-42,0629 109,3075 39,3831
-33,6718 114,3075 25,0678
-27,1667 142,9841 115,9165
-32,7701 109,3075 39,0812
-90,2311 123,4247 75,4552
-89,4475 130,1744 86,5028
-23,2990 108,8446 90,1206
-43,8015 135,1835 105,1236
-33,6718 114,3075 25,0678
-121,6996 172,2204 146,0917
-40,0201 109,3075 44,6442
-91,2184 121,8978 74,1410
-37,1541 109,3075 33,2440
-60,4796 109,3437 61,1879
-38,1024 129,2231 104,0034
-39,9276 109,3075 33,4544
-35,9011 145,3398 114,9960
-54,4452 109,3075 41,5253
-37,0961 109,3074 34,7464
-31,2224 109,3075 42,5926
-23,8169 138,6171 110,5341
-46,7012 111,8594 87,6441
-54,2693 109,3075 66,6008
-45,8907 109,3074 44,2879
-33,6781 109,3074 33,8528
-57,8062 144,4572 109,8004
-53,8449 172,3536 170,4308
-38,4409 109,3671 88,2617
-35,3193 109,3075 33,5951
-57,4515 109,3104 70,2518
-32,2074 109,3074 40,3475
-74,2281 112,5812 77,8313
-67,4505 112,6096 81,1373
-47,8205 132,5973 103,3499
-41,6903 109,3075 53,2196
-46,1315 109,3075 35,1355
-36,4599 118,3661 92,0007
-99,7511 161,5019 143,6131
-19,4623 111,1711 92,1755
-68,9841 128,8256 95,8434
-37,4528 120,0703 92,4296
-39,2082 109,3075 36,2313
-115,3794 207,2585 181,2321
-96,4507 131,9244 84,3350
-57,2225 130,6920 100,7853
-47,8788 121,4043 90,9139
-93,7713 178,8383 162,4964
-48,4851 117,1548 89,2164
-118,3745 188,8896 163,3974
-30,1617 109,3075 36,3147
-28,5903 109,3075 43,5126
-91,7162 164,4879 148,7699
-32,9322 109,3075 42,4189
-24,9700 127,3280 105,6413
-45,6029 109,3074 35,3416
-35,6736 109,3075 33,8326
-56,4619 119,3952 88,5104
-49,3793 109,3074 39,7542
-47,6289 109,3075 43,4079
-37,2038 109,3075 50,9759
-30,2877 141,0579 114,5802
-64,6074 177,6898 170,1399
-43,1720 109,3074 37,1243
-46,6035 109,3074 40,2393
-59,4042 122,8107 89,3126
-27,6265 112,0821 91,5110
-37,6578 109,3074 33,6699
-32,5131 109,3075 35,3338
-32,5804 109,3075 35,4070
-17,3184 134,0299 109,2762
-55,0712 109,3074 46,9934
-39,1117 145,3965 114,3056
-62,1770 198,5624 187,2370
-48,6442 125,7071 100,6125
-55,7384 140,1126 108,6136
-31,4658 109,3075 46,4582
-47,5476 109,3075 52,3831
-40,1626 109,3075 35,4981
-46,3885 109,3075 40,9689
-33,6718 114,3075 25,0678
-27,4309 113,0643 91,8790
-31,5787 109,3075 34,6122
-36,2710 109,3075 40,0662
-122,2036 167,0005 135,2248
-43,6957 109,3074 34,1284
-69,4602 132,8273 97,2318
-33,6718 114,3075 25,0678
-35,5917 109,3075 35,9902
-21,1341 134,4534 108,8783
-32,1798 109,3075 36,1309
-33,6718 114,3075 25,0678
-27,9199 118,6559 93,7807
-30,9039 109,3075 35,0213
-33,6718 114,3075 25,0678
-29,4376 109,3075 47,4460
-39,6081 109,3075 54,6467
-36,4614 109,3075 34,4324
-25,2220 108,7335 84,4805
-42,7184 109,3075 47,1898
-55,0543 111,8353 85,9703
-51,2077 119,5183 89,5701
-62,0918 176,6773 170,2962
-36,2914 135,9183 106,8906
-41,7462 109,3075 31,7216
-43,1389 188,3053 186,7755
-56,1713 188,7685 184,3777
-67,7140 129,4763 96,7184
-28,7447 109,3074 51,1082
-43,3868 109,3075 37,4582
-11,2434 149,9287 121,7654
-28,4994 109,3074 68,1031
-40,8923 109,3075 31,9173
-35,5100 109,3075 41,8625
-54,9536 120,2402 89,1157
-39,0801 109,3074 42,4559
-89,9451 130,6585 86,4546
-62,6881 109,3684 48,2839
-34,4456 109,3074 51,2041
-81,8095 109,5749 71,8456
-33,4792 109,3074 37,0119
-61,7238 118,7267 86,3791
-37,8343 109,3075 34,1079
-46,5614 183,2508 176,4315
-49,4488 109,3075 41,8680
-12,7371 109,7018 92,1449
-6,3119 142,7258 119,9078
-44,5868 116,9884 89,9068
-92,9252 183,3267 165,1285
-72,2315 123,2629 83,5229
-31,1378 109,3074 36,4916
-84,5769 164,2017 152,1602
-7,4552 128,0114 107,6687
-64,9962 120,8117 85,6448
-97,1589 126,9475 82,1775
-49,7765 121,2371 90,4855
-63,4891 120,6332 86,2982
-106,3575 180,4203 156,9537
-47,2445 109,3075 62,5672
-33,7619 109,3075 53,9098
-98,3134 125,6926 81,2751
-76,7229 120,0758 79,7035
-40,7818 109,3075 36,6791
-32,3742 109,3075 35,8642
-39,6417 141,2150 112,5909
-30,5872 109,3074 38,2229
-38,6647 109,3075 36,4848
-33,6812 109,3075 38,1803
-33,6718 114,3075 25,0678
-52,6358 127,5988 100,5332
-91,0248 109,5741 68,9532
-35,7858 109,3074 39,0619
-26,8213 109,3074 54,9297
-96,7375 166,2745 147,0282
-69,0252 120,1360 83,4330
-33,6718 114,3075 25,0678
-38,7558 109,3075 34,8417
-109,0598 173,8816 152,9749
-59,2686 116,8674 86,8111
-7,6605 137,6144 111,3217
-37,6925 109,3075 32,9357
-158,3599 194,9288 151,5984
-45,2530 109,3075 35,5361
-67,8688 109,4214 73,0473
-53,7216 109,3075 51,5458
-17,3490 141,8060 117,4044
-45,9604 123,0272 92,1356
-13,6128 129,5192 107,9181
-42,4421 109,3074 32,6936
-99,0917 138,9546 86,5311
-40,4384 109,3074 41,0623
-33,9484 109,3075 40,8103
-34,5936 197,4921 191,6673
-33,6718 114,3075 25,0678
-40,5318 109,3075 38,1024
-52,5900 123,0654 90,8854
-41,2406 109,3075 37,4285
-33,2295 119,6102 93,0886
-25,6052 182,6026 179,3789
-28,8386 108,5756 88,2934
-43,6422 109,3074 62,0936
-13,3345 137,3529 110,8714
-36,3850 109,3075 52,9552
-28,4315 109,3074 48,6918
-32,0216 109,3075 33,9056
5,6031 179,0257 179,1548
-71,6639 109,4650 58,7505
-48,7359 109,3075 42,1496
-32,8794 109,3075 35,7726
2,2905 195,6966 194,9080
-33,6718 114,3075 25,0678
-43,9429 109,3075 42,3986
-32,8405 109,3075 34,4552
-40,6569 109,3075 41,1456
-14,3612 122,7334 97,1914
-45,0328 109,3074 38,2032
-31,9615 177,1346 176,2080
-13,1785 145,2892 119,6041
-45,2400 109,3075 46,6687
-93,9673 131,4486 85,0873
-33,6718 114,3075 25,0678
-35,8585 109,3074 34,2348
-41,7889 109,3075 32,0915
-39,6368 109,3074 35,7086
-156,5911 177,2953 137,2558
-49,3172 114,2274 87,9671
12,5174 174,3270 174,3251
-26,4715 109,3075 53,8957
-52,7762 117,8357 88,6416
-50,6457 123,8232 91,9322
-9,3807 150,5593 122,3226
-33,6718 114,3075 25,0678
-42,3954 109,3075 46,3999
-28,8204 109,3075 49,7319
-46,4494 109,3075 35,1906
-65,6859 141,6766 106,6985
-57,4812 113,7403 86,2105
-39,0083 109,3075 36,2303
-41,8464 109,3075 31,3854
-31,4193 109,3075 35,7060
-35,9141 109,3075 43,5004
-70,9924 134,6864 97,2405
-32,8422 109,3074 36,2748
-34,0891 109,3075 40,4118
-90,6990 131,3938 86,3824
-70,5530 124,1269 85,9552
-44,1205 109,3075 35,6199
-17,3075 121,8351 96,4002
-8,1284 133,7299 109,7704
-31,3376 109,3075 56,6009
-15,7441 111,2824 92,6773
-40,1635 110,9121 88,6181
-29,2833 148,3098 117,5535
-80,6406 114,0526 75,3247
-33,4681 109,3075 39,9163
-107,9473 139,6213 84,2035
-66,3663 109,4075 59,7153
-21,1019 120,0381 95,1900
-38,5971 109,3074 32,3423
-36,4983 109,3075 33,4392
-39,7578 109,3075 31,3334
-107,0447 136,3935 82,0559
-49,3108 109,3075 44,3361
-33,6718 114,3075 25,0678
-27,3112 109,3075 49,0551
-36,3574 109,3075 37,5145
-24,3998 114,0550 92,5916
-42,2016 109,3075 34,6467
-59,5511 131,2001 100,5168
-109,0284 163,5975 139,9061
-35,2673 109,3075 59,3956
-35,1661 109,3074 39,0304
-70,7682 191,4900 182,2582
-48,0713 112,0146 87,4246
-19,4119 146,5076 118,8482
-33,6718 114,3075 25,0678
-31,4465 109,3075 34,7682
-34,4088 109,3075 33,9758
-74,6650 116,4046 79,2042
-52,7582 109,3075 51,5757
-43,1873 109,3075 41,6656
-60,0365 143,9672 109,1186
-14,1437 116,1819 94,6419
-24,6975 124,2922 98,2497
-35,2667 109,3075 33,6557
-78,7098 116,7810 77,3943
-33,2956 109,3075 48,3896
-45,2750 109,3075 48,8952
-30,4518 128,1988 105,1342
-60,1087 109,3395 64,1147
-33,2637 109,3074 35,8638
-62,6134 109,3664 68,0365
-41,1811 109,3074 33,8348
-29,0209 109,0691 90,0222
-33,6718 114,3075 25,0678
-31,4163 109,3075 40,9270
-37,4050 109,9624 88,8341
-94,2854 122,2767 73,3263
-30,2380 109,3075 61,8291
-40,9869 136,9305 106,3415
-27,8788 109,3512 90,4822
-35,9833 139,2178 109,9786
-42,7773 109,3075 33,7054
-32,6734 109,3075 34,1088
-164,2386 167,2177 123,9823
-33,1841 109,3075 44,0022
-33,6718 114,3075 25,0678
-35,9377 205,7946 202,7585
-95,9924 172,2139 158,7187
-36,5689 109,3075 39,1515
-79,4398 172,5607 165,0554
-38,2071 109,3074 47,3870
-37,0585 109,3075 40,5832
-34,1421 176,4368 175,5860
-48,1697 113,2730 87,8508
-70,7881 111,4744 79,0444
-42,2094 109,3075 38,7872
-41,8494 109,1957 81,0235
-30,3845 109,3075 37,9650
-31,0797 109,3075 35,1361
-30,0499 109,3075 56,4790
-38,4047 113,4249 89,8606
-31,2344 109,3075 34,1713
-36,9610 109,3074 34,0204
-105,8430 165,6360 142,2974
-97,5177 127,4244 82,2228
-94,8287 118,9728 71,8639
-161,9646 196,6071 151,5501
-44,2778 179,9564 175,2352
-37,5315 123,1151 93,8311
-58,3231 137,1855 102,9992
-36,4990 109,3075 37,8719
-36,1507 109,3075 35,8024
-78,7777 111,0646 74,9913
-40,0604 109,3074 32,3828
-47,6213 126,7428 101,2003
-58,6143 114,2261 86,0609
-33,6718 114,3075 25,0678
-65,8443 116,3659 83,4437
-5,6351 148,6429 122,2535
-14,5880 133,0200 109,1833
-75,2752 110,7881 76,5790
-36,6727 109,3075 35,2310
-55,5911 127,6378 99,9664
-44,7237 109,3075 38,8872
-33,6718 114,3075 25,0678
-120,7409 168,2814 136,6673
-13,1644 127,4757 107,1735
-153,5051 188,8573 150,2365
-31,6194 109,3074 33,8209
-28,4718 122,7858 95,3158
-45,0040 109,3075 42,2469
-37,1275 109,3075 38,0250
-33,7286 127,4209 104,1905
-64,8482 120,8113 85,7159
-40,4142 109,3075 40,8988
-47,0808 109,3075 36,6142
-40,1407 109,3075 50,0459
-38,0654 109,3075 41,5416
-39,4704 109,3075 37,2723
-32,9339 109,3075 35,3727
-88,6885 130,1270 86,8516
-43,1298 109,3074 39,6334
-30,6764 144,6484 115,8718
-55,0136 118,0187 88,2779
-90,8247 120,7232 73,8053
-13,8026 138,4707 111,6783
-70,1783 109,4489 58,7106
-86,9628 114,3956 72,5435
-33,6718 114,3075 25,0678
-27,1364 134,2861 107,9371
-33,6718 114,3075 25,0678
-30,8832 145,7822 116,2634
-75,2415 122,7577 81,6448
-43,4919 109,3075 44,7499
-26,2607 109,3075 49,4308
-48,4617 109,3075 43,4703
-72,3368 141,7071 103,0321
-104,0250 129,3824 80,5295
-44,2747 124,1216 94,1313
-33,6718 114,3075 25,0678
-33,6718 114,3075 25,0678
-37,5937 132,3559 105,2872
-39,1047 109,3074 32,7684
-56,8943 109,3075 52,0483
-82,1182 137,6705 93,0397
-35,6595 109,3075 34,2800
-32,7886 109,3075 34,2834
-101,6441 165,4788 144,2958
-37,3231 121,6492 93,0419
-48,5518 109,3075 38,6486
-43,1997 109,3074 33,5149
-33,6718 114,3075 25,0678
-21,2007 110,8644 91,8585
-33,6718 114,3075 25,0678
-51,9714 117,6643 88,7332
-15,0720 134,9497 109,8834
-33,6718 114,3075 25,0678
-17,7365 125,6965 106,0810
-116,4382 191,7097 165,4934
-59,6763 109,3322 77,1879
-41,0577 109,3075 33,2425
-71,7070 113,7332 79,5343
-39,4221 167,3834 163,1136
-42,2685 117,3240 90,4789
-58,4892 109,3230 47,8282
-34,7240 109,3075 48,9449
-41,6148 109,6892 87,8417
-39,9042 116,8351 90,7684
-53,4499 178,4333 172,8036
-120,6526 179,6668 149,6245
-36,5569 109,3075 33,7505
-31,7921 109,3075 54,2789
-24,4899 119,2392 94,4106
-56,5482 115,0400 86,8739
-39,1185 109,3074 33,5450
-21,5853 126,6061 105,8627
-3,4534 152,4391 124,4072
-32,0683 109,3074 37,8883
-42,9356 109,3074 32,0858
-38,9427 109,3075 32,8126
-33,6718 114,3075 25,0678
-71,6782 133,5322 96,4483
-29,2353 112,9092 91,5146
-66,2500 132,3803 98,5977
-35,2759 109,3075 33,7052
-33,4127 109,3075 34,2675
-91,5814 117,5400 72,3231
-34,1765 108,8772 88,6410
-30,1273 117,2439 92,8716
-39,4200 109,3075 32,2554
-18,5801 119,9231 95,5048
-17,5475 142,3512 117,5801
-34,6348 109,3075 37,0582
-41,8339 109,3074 40,3972
-88,9477 135,0002 88,6674
-49,5403 109,3075 41,4050
-142,8500 165,0448 127,1493
-113,0790 164,2925 138,1982
-47,5789 109,3074 41,7871
-45,2253 109,3074 52,9365
-36,8063 109,3074 37,8001
-69,8871 208,0455 196,9257
-92,7992 115,6970 71,2201
-43,3872 141,5797 111,8994
-87,8487 173,4226 163,2103
-39,2466 109,3075 36,5157
-41,6074 109,3074 33,5588
-32,7528 109,3074 36,0465
-43,9737 109,3074 34,9350
-33,6718 114,3075 25,0678
-86,9675 129,1363 87,2906
-53,5920 129,9664 101,2288
-33,6718 114,3075 25,0678
-31,4409 109,3075 34,2822
-34,1784 109,3075 53,9055
-71,4513 113,8972 79,7266
-42,1721 109,3075 42,2078
-31,2266 109,3075 37,6587
-76,8980 110,7657 75,7810
-47,5294 109,3075 57,1759
-33,1633 109,3075 34,3667
-46,4229 109,3074 67,4994
-66,8540 166,2240 157,1134
-44,6402 109,3075 35,0785
-31,7993 109,3075 39,2093
-48,9217 141,4315 110,6181
-142,9945 161,5181 125,8150
-37,9760 109,3074 33,9065
-80,1123 121,7867 78,7620
-51,3631 179,0475 173,4807
-31,3267 109,3075 33,9116
-62,6762 109,3667 73,2124
-34,1426 109,3075 36,3708
-43,6010 109,3075 38,9279
-62,7853 109,3688 59,0578
-36,6131 109,3075 34,7708
-53,1146 119,5322 89,2073
-31,1679 109,3075 34,3306
-61,0128 133,7445 101,1790
-68,3706 118,2302 82,9795
-34,4000 109,3074 34,1346
-49,5101 109,3075 56,2465
-97,9720 178,7693 160,4044
17,3211 196,7380 189,8481
-29,4644 109,3075 49,2074
-36,2014 109,3074 34,0305
-34,0310 109,3075 38,2733
-90,6972 110,8075 70,0228
-42,8054 109,3075 32,1266
-92,7790 113,2964 70,2955
-34,2638 109,3075 42,2645
-67,0987 109,4157 55,7242
-37,4696 109,3075 35,9685
-39,8415 109,3075 42,7767
-34,6929 130,4418 105,1399
-62,4178 137,1181 102,1617
-131,2090 163,8419 130,4454
-32,8127 109,3074 37,0661
-104,9121 132,8534 81,5074
-123,0337 181,4496 149,1773
-32,1580 109,3074 40,4730
-36,5545 109,3074 37,2828
-46,6690 109,3075 58,2084
-78,2040 173,9790 165,8496
-33,6718 114,3075 25,0678
-52,6355 115,0340 87,6267
-37,0469 109,3075 37,2502
-64,3764 109,3864 53,3638
-36,0012 109,3074 43,1279
-33,6718 114,3075 25,0678
-40,6021 109,3074 32,5551
-100,4657 137,2638 84,8620
-10,6789 142,6807 119,0467
-25,3040 120,2971 94,6905
-34,6066 109,3075 34,6758
-33,3081 109,3075 42,4309
-30,4038 109,3074 48,4497
-10,7983 175,0166 177,9705
-33,1218 109,3074 34,3093
-31,3873 109,3074 35,4854
-22,2387 108,9829 79,7117
-29,2530 109,3075 51,9474
-36,3485 109,3075 43,0798
-47,2421 135,3702 104,5116
-53,6979 147,3388 112,7554
-124,9704 166,0387 133,7598
-34,2803 109,3075 37,5139
-40,7796 144,4478 113,5733
-33,6718 114,3075 25,0678
-26,1106 109,3075 61,2066
-34,6085 109,3075 36,7317
-46,6420 117,4845 89,6947
-15,8935 117,0643 94,8175
-88,5381 164,9790 150,5299
-90,5370 164,5005 149,3542
-39,7536 109,3075 39,7379
-82,7386 125,7122 87,9584
-4,6892 151,7887 123,7465
-15,3377 120,7715 96,2815
-60,2352 116,5310 86,2102
-79,6637 132,8237 92,2978
-51,2442 109,3075 43,9613
-32,1247 109,3075 34,4791
-32,6678 109,3074 35,2851
-7,1570 146,8260 121,3120
-25,4863 116,0867 93,1731
-31,3087 109,3075 47,4531
-33,4065 110,5437 89,8410
-119,0854 178,5057 149,9238
-37,0502 109,3074 33,8056
-77,1637 135,5213 94,5835
-5,5100 147,4045 121,8125
-107,1337 160,0659 139,4033
-39,1314 146,2566 114,6297
-54,2740 114,3881 87,0703
-34,1243 109,0125 82,0727
-33,6718 114,3075 25,0678
-31,1608 109,3074 40,3422
-95,6113 129,7603 83,8251
-32,7601 130,7494 105,6394
-110,5883 173,4523 152,0499
-38,9854 109,3074 32,1912
-16,1400 114,5704 93,8502
-33,7218 109,3075 34,1107
-12,0103 112,2732 93,3168
-54,8186 109,3075 53,7042
-37,4380 109,3075 64,7697
-33,6718 114,3075 25,0678
-41,4742 109,3074 55,1948
-43,1792 109,3074 33,9572
-39,2314 109,3075 39,6554
-116,2818 194,6977 166,7829
-56,3957 109,3075 61,9788
-33,6718 114,3075 25,0678
-44,3351 115,3537 89,3560
-41,3071 109,3075 31,5471
-96,8630 134,1067 85,0124
-31,2993 115,7157 92,0955
-32,2856 109,3075 36,3719
-40,6330 109,3075 35,2962
-39,3766 109,3075 40,0363
-89,7718 116,3936 72,4429
-33,6718 114,3075 25,0678
-74,1796 165,5449 155,3036
-75,1742 122,9480 81,8390
-39,0366 109,3074 35,0276
-78,3575 121,7340 79,5854
-44,1919 109,3075 38,4850
-52,5295 109,3075 44,2041
-70,7657 123,0423 84,0411
-33,6718 114,3075 25,0678
-32,4265 109,3075 45,1750
-39,6346 109,3075 31,7965
-42,5369 109,3074 37,1332
-73,7408 127,5864 93,0508
-50,6912 133,2798 103,0382
-40,4794 109,3075 34,1031
-15,4334 121,7185 96,6225
-8,8183 188,0584 191,2058
-43,0175 109,3074 46,4384
-41,7157 109,3074 35,7975
-77,8141 113,2210 76,3537
-36,2699 109,3075 71,3549
-28,0065 109,3075 49,2287
-25,8771 135,3277 108,5122
-64,0406 129,0656 98,3220
-60,9422 118,3860 86,6179
-37,0721 181,4713 176,9918
-51,8498 109,5404 85,5586
-80,1308 134,2286 92,6312
-39,1143 109,3075 38,3766
-33,6718 114,3075 25,0678
-40,7922 109,3075 47,5776
-32,1740 109,3075 36,5928
-62,2137 112,6165 83,6793
-52,2382 144,6758 111,1189
-33,6718 114,3075 25,0678
-35,8074 117,3591 91,7747
-37,0711 109,3075 48,7251
-138,3282 178,6376 142,0292
-69,0395 141,7967 104,8937
-55,9466 109,3075 55,3842
-66,4726 109,4089 56,4847
-69,4646 115,5434 81,3695
-81,6934 116,8143 75,9580
-34,9085 109,3074 54,7556
-32,3931 109,3075 36,1576
-46,2896 109,3075 52,4711
-40,5813 109,3075 36,9207
-45,0545 119,5043 90,7522
-82,1656 131,1204 90,4072
-85,1930 137,3766 91,4330
-44,1978 118,3212 90,4775
-56,8090 135,7018 102,7393
-15,8560 142,5659 118,0014
-4,0808 190,4448 192,4617
-33,6718 114,3075 25,0678
-103,3163 197,6104 174,4255
-37,2568 109,3075 36,1230
-42,1937 109,3075 32,6230
-11,9789 115,6564 94,5744
-24,6907 109,3075 55,9208
-36,4026 109,3075 45,4658
-24,4844 109,3074 66,4854
-15,9477 141,4104 117,5231
-62,5864 112,2977 83,3713
-36,9625 144,4078 114,4046
-86,1023 142,8165 96,0678
-31,3528 111,4723 90,5814
-35,0988 109,3075 38,4017
-17,8806 113,3580 93,1500
-30,3964 109,3075 37,6647
-67,1182 119,4258 84,0645
-34,6536 109,3074 35,1591
-45,6683 109,3075 37,1830
-21,0131 121,3288 95,6850
-19,3019 117,7288 94,5822
-41,7036 109,3074 32,3983
-23,2524 122,5641 95,8824
-82,1473 136,9422 92,7354
-69,5573 127,1173 94,8766
-22,9159 193,8418 192,2139
-26,8577 136,7319 108,8957
-89,3698 208,0211 192,6917
-36,2972 136,4002 107,0714
-29,7087 109,3075 66,4198
-39,6238 109,3075 32,0167
-50,1551 123,0404 91,3360
-35,1529 109,3075 35,0345
-19,7438 144,9727 118,1722
-33,6718 114,3075 25,0678
-36,9494 109,3075 46,0793
-57,7563 109,3150 49,5081
-70,6783 126,7028 94,1690
-29,9301 109,3075 57,5172
-51,2199 132,8280 102,7636
-37,3228 109,3075 33,7560
-80,9318 140,6904 97,8502
-102,0669 132,7673 82,5445
-106,4178 133,0331 81,0097
-43,1416 109,3075 55,7743
-33,6718 114,3075 25,0678
-89,7293 203,9782 191,0988
-35,2889 109,3074 37,6052
-33,2799 109,3075 34,2628
-40,4940 115,8466 90,3001
-96,2227 161,4433 145,3223
-17,2844 131,6332 108,3797
-20,6423 132,1004 108,0665
-42,0047 109,3074 31,8342
-14,9852 118,7245 95,5395
-32,6774 109,3075 43,2504
-45,0844 109,3075 49,3898
-20,8455 121,1487 95,6415
-56,2430 109,3074 53,4307
-69,7326 141,5043 104,3874
-35,4197 109,3074 36,6380
-37,2150 109,3075 38,8857
-17,1604 127,7242 106,9275
-36,3762 109,3075 55,1150
-37,5922 143,8026 114,0338
-30,4204 109,3075 37,5724
-37,6567 109,3075 36,4176
-32,0705 109,3075 37,1609
-89,4078 134,5602 88,2693
-49,9491 109,3075 72,1533
-21,6840 122,0512 95,8599
-98,3830 181,4000 161,2693
-33,5762 109,3075 35,8014
-152,7195 163,1681 124,6233
-36,8095 109,3075 52,5134
-14,1245 116,3625 94,7103
-30,9198 142,6565 115,0665
-91,0359 134,2149 87,3430
-78,7633 114,5607 76,4478
-30,9045 109,3074 37,4025
-96,2988 191,0225 175,1120
-46,9025 109,3075 38,8875
-45,8957 109,3075 44,6059
-30,4474 109,3074 39,4401
-37,1717 109,3075 33,0708
-36,8229 109,3075 34,2544
-43,4579 109,3075 71,5070
-65,6958 178,2069 170,1020
-87,8654 123,4646 76,2299
-101,5449 190,8775 172,4747
-34,7150 109,3075 45,4018
-37,5164 109,3074 33,8591
-103,0829 196,3151 173,9250
-127,8464 206,4767 174,7904
-143,4285 190,3775 153,2092
-39,7916 109,3075 33,2310
-124,3422 181,0865 148,4718
-39,9258 109,3075 44,6746
-41,3678 109,3075 34,6435
-82,6960 110,3354 72,7070
-25,1170 113,0546 92,1545
-80,8264 121,4431 78,2797
-38,6647 109,3075 36,4848
-35,3419 109,3075 40,3264
-32,3960 109,3075 42,8859
-31,5627 109,3074 39,6455
-30,8518 148,4494 117,2896
-32,5567 122,2828 94,1973
-28,0708 109,3074 50,6086
-37,3891 109,3075 33,9137
-33,6718 114,3075 25,0678
-29,8890 109,3075 43,8221
-45,6165 109,3074 34,2991
-33,6718 114,3075 25,0678
-40,7251 113,7471 89,5099
-109,6805 140,4291 83,8102
-29,1303 109,3075 53,5502
-34,7755 167,7251 164,1184
-35,0726 129,7621 104,8079
-9,6490 132,1411 109,0988
-54,7954 117,5130 88,1320
-31,0149 109,3075 37,6158
-100,4956 162,3804 143,6037
-34,3845 109,3074 40,4009
-93,1577 125,5666 83,1522
-94,1990 124,2199 75,9327
-38,7553 109,3075 45,7169
-33,6718 114,3075 25,0678
-53,4327 141,6741 109,7123
-90,2149 178,9554 164,2913
-20,6369 135,7167 109,4252
-28,7109 143,4039 115,7779
-46,5504 111,8594 87,6743
-35,4831 109,3074 33,5618
-12,3106 141,3015 118,1818
-41,9504 109,3074 31,4658
-34,2898 109,3075 34,8195
-45,9041 109,3075 52,1467
-18,2104 136,6768 110,1406
-41,8383 109,3075 42,8037
-35,5372 109,3074 34,1358
-35,0919 132,6866 105,9083
-10,6739 122,8866 97,5273
-5,7133 151,9785 123,7638
-38,3208 109,3075 36,9219
-52,7561 114,7105 87,4831
-86,7509 116,7044 73,5129
-80,1353 109,9037 73,5999
-38,4455 168,0026 163,7383
-137,6040 162,6474 127,5332
10,7652 177,5801 176,3652
-80,3328 115,2455 75,9689
-43,8181 109,3074 45,1611
-42,9598 109,3074 35,5998
-31,9711 113,2472 91,0863
-40,7772 109,3074 45,6215
-82,6575 126,1316 88,1670
-31,2581 109,3074 43,2962
-24,1720 109,3063 73,9849
7,7122 175,1363 176,7090
-35,4235 109,3074 36,4775
-31,4071 109,3074 33,6084
-41,4971 109,3075 33,9843
-34,1255 135,3117 107,0912
-60,7202 128,3961 99,2403
-34,9944 109,3074 45,1701
-40,0021 109,3075 46,1331
-44,3108 188,8222 186,7741
-40,1315 109,3075 36,5911
-33,6718 114,3075 25,0678
-34,9424 109,3074 43,0582
-56,7707 109,3075 47,4063
-45,3915 119,8456 90,8142
-44,4851 109,3074 45,7347
-44,9324 109,3075 33,6412
-99,4444 136,8761 85,0982
-39,1119 109,3075 33,4018
-99,5860 129,8946 82,3816
-34,9985 109,3075 43,2292
-42,1052 148,9879 116,3075
-21,4649 108,9808 82,7176
-35,9015 109,3075 34,8304
-24,7937 131,6052 107,2739
-31,7973 109,3075 34,4781
-31,0160 109,3075 34,1100
-30,9419 117,9182 92,9474
-47,6628 109,3074 43,7306
-16,0353 115,6303 94,2613
-38,1968 123,2951 93,8446
-66,2152 110,0894 80,5874
-73,4246 134,4845 95,9818
-35,4861 109,3074 42,0207
-32,3677 109,3074 38,0181
-33,6718 114,3075 25,0678
-36,5226 109,3074 35,8610
-45,7123 109,3075 36,0571
-39,8714 109,3074 36,1898
-69,8968 142,5801 104,7487
-53,6675 109,3075 66,8939
-33,5972 109,3075 43,2774
-89,0551 139,7692 92,9694
-35,9549 116,3569 91,3901
-33,6718 114,3075 25,0678
-50,3467 113,7481 87,5901
-42,8764 194,2990 189,0568
-113,4575 176,5954 151,9143
-68,7903 110,2256 79,4377
-66,8814 109,4127 65,9843
-142,9977 162,8428 126,3056
-63,8855 111,6622 82,4772
-31,7717 109,3074 40,5628
-7,4717 151,2258 122,9235
-14,9735 122,5068 96,9787
-33,6718 114,3075 25,0678
-32,7334 109,3075 34,6170
-60,8618 109,3474 67,8373
-18,5021 151,3295 121,6997
-7,1085 142,6074 119,7067
-45,1662 116,3302 89,5502
-25,4200 126,0109 105,0804
-97,5288 189,7928 174,0088
-85,3022 117,5763 74,5199
-35,4569 109,3075 37,4908
-40,9751 109,3075 46,3598
-57,6313 109,3133 54,0136
-87,8660 114,2188 72,1908
-113,6217 162,5896 137,2402
-58,0084 140,4162 108,2263
-145,5838 166,5765 127,2096
-44,8843 109,3074 40,0994
-77,5118 128,3123 91,5276
-43,7709 109,3075 42,0153
-47,1093 109,3074 37,0970
-37,9857 109,3074 59,1609
-43,1492 110,3061 87,8053
-84,5008 114,2207 73,5182
-64,7568 122,0531 86,2606
-37,0417 109,3075 39,0459
-33,2168 109,3075 41,2204
-92,4261 116,9982 71,8460
-33,6718 114,3075 25,0678
-40,6300 109,3074 34,8801
-39,3548 109,3074 35,2055
-35,8113 109,3075 36,9050
-41,4659 109,3075 38,2915
-19,3146 109,3074 70,3032
-38,2873 109,3074 36,8364
-42,0451 115,8436 89,9883
-79,2182 133,2645 92,6892
-137,2264 166,5845 129,1457
-30,0051 145,2822 116,2428
-75,1630 117,2612 79,3173
-38,7644 109,3074 34,3609
-41,0638 114,5486 89,7261
-32,3269 109,3075 60,6405
-42,6481 109,3075 34,6262
-33,6718 114,3075 25,0678
-36,4674 118,8767 92,1802
-92,5209 138,5563 88,6474
-46,6301 117,3186 89,6353
-33,6718 114,3075 25,0678
-126,0540 167,5570 133,9811
-40,8669 109,3075 38,1977
-33,9079 109,3074 33,7496
-43,8869 109,3075 33,4444
-7,7721 198,2147 195,3972
-44,7949 109,3075 44,0440
-58,4949 135,2817 102,2481
-15,9820 137,1445 110,6422
-43,1303 109,3075 32,6355
-37,0470 109,3075 33,9883
-33,6718 114,3075 25,0678
-56,9587 109,3075 45,7132
-42,3729 109,3074 43,9647
-31,5157 109,3075 37,6171
-37,5209 128,3737 103,7981
-28,8308 109,3074 42,8066
-71,3643 135,8698 97,5318
-68,0900 138,1245 100,2934
-52,9029 109,3075 58,2413
-13,1356 137,1120 110,7909
-38,2487 109,3075 34,7009
-21,9325 118,2187 94,3920
-58,2738 109,3198 61,7840
-99,3674 136,6161 85,0279
-79,2641 109,5431 71,7813
-29,1132 109,3075 40,8696
-64,6810 109,3890 64,6167
-27,8003 144,3401 116,3102
-54,0868 109,3075 48,5569
-48,1839 126,9506 101,1671
-55,0224 110,2706 85,4144
-25,0355 109,3075 64,0015
-28,5500 109,3074 51,4416
-26,6387 189,7458 190,0559
-28,8613 109,3074 43,3874
-30,0918 119,1426 93,5514
-159,9635 181,3509 138,1246
-28,3481 115,3946 92,5729
-32,8056 109,3075 37,5885
-24,9993 109,3075 67,5364
-51,2634 109,3074 54,5887
-63,8672 135,4440 100,9842
-40,6548 109,3075 36,0519
-37,7713 109,3075 50,5422
-36,5216 109,3075 38,2758
-23,8865 129,1499 106,4844
-34,6667 109,3075 74,8775
-32,9926 109,3075 40,1486
-33,0505 179,1332 176,7783
-30,7830 109,3074 44,3787
-40,9680 109,3075 41,7519
-29,3540 144,4801 116,0633
-39,8603 109,3075 40,3053
-41,4779 109,3075 70,7659
-92,6070 175,2681 161,6207
-41,0934 109,3074 40,5919
-37,8431 135,3699 106,3758
-41,4949 109,3075 32,4176
-37,1366 109,3074 54,1336
-104,8743 126,1799 79,0092
-37,1941 109,3075 35,5834
-34,1395 109,3074 36,2957
-36,5062 109,3075 54,2018
-29,9667 109,3075 73,5375
-138,0753 179,1088 142,3132
-38,9548 109,3074 32,1502
-55,9912 179,9091 172,8162
-29,4805 109,3074 50,1858
-78,8475 164,0062 153,7393
-91,4990 141,2573 92,2533
-40,6108 109,3075 48,5683
-14,6529 118,3617 95,4240
-25,9795 120,6421 94,7236
-27,8086 192,0124 190,7113
-47,0358 129,0735 102,1854
-56,8327 109,3075 42,9674
-12,9127 118,9531 95,7475
-85,1461 129,9265 88,4878
-33,6718 114,3075 25,0678
-31,9155 109,3075 42,5092
-55,0807 109,3075 45,6724
-38,1789 109,3075 41,0373
-17,3958 114,7432 93,7366
-77,7037 135,5402 94,3295
-54,1648 109,3075 47,2080
-39,9896 109,3074 40,4114
-25,6412 109,3074 55,6503
-83,2111 120,0555 76,5641
-31,4906 109,3075 35,3689
-159,6172 174,4516 135,6492
-39,4700 109,3075 39,8522
-32,6198 109,3075 39,7597
-19,1868 119,1748 95,1390
-83,9799 134,4266 90,8455
-26,7367 134,0716 107,9150
-38,4561 109,3074 32,4358
-79,8211 109,7565 73,5046
-38,8709 109,3075 34,9465
-38,3710 109,3075 37,3093
-82,4016 113,0275 74,0438
-33,6718 114,3075 25,0678
-31,4284 109,3075 34,0497
-31,7964 114,7187 91,6427
-47,2527 117,3189 89,5152
-33,6718 114,3075 25,0678
-23,7506 143,9012 116,9320
-67,0439 111,9718 81,0705
-94,3361 194,7500 177,5883
-36,5660 193,5578 189,8305
-58,1302 118,5582 87,8772
-64,3360 174,1495 168,8673
-58,1081 135,2689 102,3194
-33,6718 114,3075 25,0678
-12,1137 143,3593 119,0402
-51,1017 115,1943 87,9823
-29,1756 109,3075 49,4733
-77,2811 116,5953 78,0117
-73,8792 121,0872 81,4801
-81,2823 116,4608 76,0113
-27,9175 109,3075 52,9041
-50,3316 109,4004 85,7700
-42,0590 109,3075 40,4608
-17,0696 123,4304 97,4373
-28,0674 109,3074 69,0179
-34,7622 109,3074 39,0677
-94,1743 129,1820 84,1448
-55,1960 136,8541 103,4943
-30,6470 146,9747 116,7630
-61,1487 133,2898 100,9825
-33,4365 109,3075 36,3030
-31,9435 181,3650 177,7987
9,2619 176,6126 176,6278
-48,3673 109,3075 41,0986
-40,4205 109,3075 38,4326
-31,0121 109,3075 34,7221
-31,9154 109,3075 33,8851
-33,9134 109,3075 33,9514
-14,1166 121,7619 96,7229
-25,0067 131,3624 107,1516
-40,2795 109,3075 38,2320
-34,3463 109,3075 34,3010
-50,9539 109,3074 40,3154
-98,4680 141,2360 88,9498
5,2181 174,7934 177,6446
-74,4516 120,2096 80,8507
-38,4886 110,7468 88,8950
-50,6225 109,3074 37,9092
-84,7397 115,6175 73,9811
-63,3592 118,8974 85,6607
-32,2480 109,3075 44,9519
-49,2047 109,3075 46,1020
-64,1654 140,3724 106,8487
-38,0586 109,3074 33,6015
-81,4782 191,8302 180,0839
-113,3430 166,9758 139,1572
-81,1744 122,1898 78,4133
-76,9005 127,8663 91,6418
-83,0197 113,5354 73,9539
-81,2824 126,2952 88,8957
-95,3282 132,5149 84,9824
-38,1460 109,3075 41,6829
-51,9682 109,3075 55,6042
-33,6718 114,3075 25,0678
-34,3342 109,3162 89,0913
-40,5773 109,3075 35,9880
-32,9477 109,3074 35,1809
-31,6305 109,3075 35,0639
-68,7146 111,8057 80,1896
-47,7135 113,2731 87,9422
-41,0122 109,3074 59,9010
-33,6718 114,3075 25,0678
-33,5613 112,4489 90,4850
-36,8139 111,0468 89,3367
-88,9328 135,7169 88,9602
-53,4641 109,3075 72,1675
-58,5209 127,2741 99,2542
-43,2310 109,3074 34,9093
-28,6529 116,4071 92,8705
-35,1379 109,3074 35,6317
-38,4607 168,5692 164,1797
-35,8407 130,1754 104,8116
-31,5291 109,3074 35,3088
-32,8406 109,3075 40,2670
-13,5057 128,3711 107,4926
-46,6178 109,3075 54,4781
-33,6718 114,3075 25,0678
-44,0946 109,3075 42,5585
-78,4274 119,4009 78,6109
-40,4990 109,3075 53,0903
-35,8697 109,3075 43,5058
-13,2531 124,1390 99,1842
-84,0343 136,3305 91,5776
-70,8504 129,7066 95,3005
-33,6718 114,3075 25,0678
-41,8367 109,3075 43,0273
-106,0071 174,7741 154,8364
-32,3867 109,3075 37,8294
-36,3551 109,3075 67,4072
-35,6831 109,3075 35,7542
-39,4715 109,3074 32,0061
-70,0865 135,6238 98,0528
-92,9559 173,2529 160,6320
-39,7363 109,3075 33,0366
-39,6867 109,3075 38,3831
-34,7016 132,2460 105,8194
-31,5837 109,3075 40,2748
-14,0223 137,0419 110,7206
-32,9540 109,3075 42,9171
-45,0493 109,3075 35,7571
-39,0101 109,3075 35,3912
-41,6782 109,3074 35,3298
-39,2889 109,3074 31,9544
-68,4871 196,3246 184,5660
-45,8536 188,7409 186,4878
-34,5197 116,0324 91,5626
-138,5547 160,6418 126,4982
-83,2420 113,1925 73,7037
-36,2352 109,3074 34,4968
-41,8901 109,3075 39,4831
-115,7466 178,2645 151,4663
-39,3625 109,3075 53,7809
-34,2374 109,3075 45,8640
-31,0878 109,3074 34,1895
-40,1187 118,5061 91,3334
-35,6668 109,3075 60,6100
-18,7279 111,6645 92,4370
-65,8977 128,8309 97,3325
-49,6171 121,2362 90,5160
-175,1506 182,8736 136,0494
-51,8608 129,2975 101,3197
-163,0179 176,8627 135,9074
-49,3280 127,5802 101,1771
-107,6315 140,1137 84,5359
-65,2121 123,5634 87,1570
-32,4324 115,8767 91,9255
-58,7285 132,2946 101,0872
-30,1714 114,8871 92,0278
-73,3937 116,0591 79,6788
-78,6807 118,5229 78,1307
-40,8741 123,8586 93,9334
-39,5563 109,3075 35,2750
-64,6171 182,4171 171,9172
-33,6718 114,3075 25,0678
-92,1937 114,5830 70,9746
-29,6532 109,3075 47,4858
-89,3697 109,4829 68,9762
-32,5860 126,8204 104,1904
-47,9260 109,3074 78,5138
-51,7513 109,3075 72,8512
-32,7231 109,3075 48,6579
-46,1508 112,6425 88,0318
-40,5185 112,3204 89,0459
-33,8865 109,3075 34,6606
-125,7813 166,6001 133,6596
-35,4223 125,8875 103,2811
-41,1813 109,3075 37,8790
-54,1993 113,7447 86,8455
-68,6983 165,3692 156,3996
-43,9072 109,3075 40,3432
-85,7059 133,1325 89,4938
-40,2538 109,3075 36,2967
-81,9794 109,7146 72,2373
-32,3136 180,7937 177,5232
-31,5939 109,3075 41,6813
-65,2822 135,4167 100,2914
-2,8005 147,5485 122,3341
-50,9456 109,3075 38,6852
-98,7427 165,8551 145,8734
-29,3851 109,3075 39,1597
-49,8663 123,2287 91,5394
-30,8584 109,3075 44,1889
-54,9396 109,3074 56,9738
-43,4619 109,3075 45,9320
-33,6718 114,3075 25,0678
-35,1407 109,3075 36,6767
-90,3277 138,0549 89,3124
-58,1628 111,9756 85,3707
-35,2601 146,2566 115,4884
-36,7264 109,3075 35,1445
-55,4590 109,3075 45,9357
-58,0585 128,1115 99,6577
-37,9297 109,3074 43,9199
-129,4249 160,9753 130,0281
-54,0283 132,6349 102,1390
-92,1959 118,1203 72,3571
-91,9472 127,8902 84,4896
-16,7838 117,4113 94,8208
-36,1075 109,3075 39,1232
-37,4659 109,3074 36,3949
-15,4282 173,0376 176,8598
-39,8352 109,3075 36,0008
-93,0867 132,0596 85,6516
-50,4160 119,5139 89,7212
-28,7717 133,4842 107,3968
-35,7774 109,3075 49,7945
-39,6022 109,3075 71,0469
-37,0364 109,3075 33,1286
-123,4665 166,7239 134,6195
-19,1713 146,5408 118,9104
-24,4647 148,8806 118,7605
-93,4135 122,2231 73,5791
-54,2518 119,7144 89,0556
-41,4189 127,6437 102,7568
-31,5661 109,3074 36,4974
-69,9224 133,5178 97,2883
-66,7681 119,9445 84,4422
-52,7942 123,2588 90,9977
-79,0583 208,8682 195,2445
-73,8163 110,8062 77,2956
-71,7600 138,4030 98,7250
-32,3019 109,3074 39,7335
-63,5503 111,3470 82,5094
-115,2337 192,8443 166,5458
-36,6369 109,3075 43,2146
-30,2455 109,3075 38,2448
-44,5302 109,3075 33,9720
-49,3722 133,2760 103,2984
-34,9218 109,3074 34,7587
-12,2069 124,2109 99,4732
-123,6351 177,9030 147,5095
-105,9784 161,7137 140,6399
-33,4002 114,8807 91,3788
-32,0636 109,3075 34,7058
-41,7071 135,4708 105,6475
-41,5999 109,3075 41,8587
-17,7169 117,2169 94,6157
-46,8216 109,3075 43,9951
-28,6347 109,3075 43,5248
-62,2243 194,5431 185,2447
-69,7708 120,1434 83,0771
-26,0416 122,8606 95,7189
-48,0753 109,3075 45,2763
-61,6266 109,3558 65,7213
-31,3207 109,3075 39,3697
-39,1149 109,3074 41,0620
-84,0466 119,5330 75,9414
-39,7146 109,3074 32,2266
-71,0483 119,8079 82,3269
-71,7660 116,0514 80,4666
-33,6718 114,3075 25,0678
-45,2926 177,8165 174,2680
-14,6920 131,8117 108,7247
-28,0100 138,5489 109,8675
-36,1837 109,3074 37,7417
-38,3793 109,3075 43,6116
-23,4384 125,8742 105,3176
-16,0507 109,2555 81,5277
-7,8750 132,0267 109,1443
-43,5568 109,3075 33,8315
-72,3463 109,4717 68,7103
-92,2670 136,0010 87,4634
-51,7452 109,3074 40,7067
-77,8300 133,4431 93,4329
-48,2020 179,7447 174,4185
-38,6286 109,3075 57,3539
-31,6767 109,3075 35,4753
-60,5506 109,3443 63,7563
-42,6940 109,3075 41,7216
-36,3003 109,3074 34,2960
-46,0719 196,5819 189,3797
-36,2704 109,3074 40,7345
-56,8549 109,3075 49,6356
-134,8631 194,1593 158,0370
-31,2224 109,3075 42,5926
-159,3532 166,5376 124,6380
-32,4123 109,3075 34,5800
-80,4361 112,7043 74,8651
-31,6652 111,9553 90,6899
-98,0395 195,8221 176,2031
-60,4476 109,3387 80,7317
-77,1220 126,3862 90,9367
-35,8017 109,3075 46,9603
-17,7640 112,6722 92,9102
-20,8328 116,2948 93,8289
-31,3729 109,8867 90,0156
-33,9756 109,3074 35,3298
-33,6718 114,3075 25,0678
-92,6471 120,6198 73,1928
-40,7475 109,3074 34,7957
-47,8962 109,3075 50,1584
-37,4748 109,3074 44,0170
-49,4772 109,3075 43,7925
-62,9653 115,5349 84,4944
-23,3131 121,6268 95,4701
-39,0786 109,3074 33,3507
-127,2023 173,3989 144,3562
-59,0055 131,4059 100,7010
-37,9924 109,3075 32,7751
-23,8993 123,1339 96,2367
-33,6718 114,3075 25,0678
-26,1106 109,3075 61,2066
-75,5223 132,4598 94,1591
-33,3922 109,3075 34,2130
-36,0061 109,3075 40,7761
-39,3490 119,1911 91,7367
-73,1682 113,7308 78,8231
-19,3031 130,0952 107,5073
-33,0519 109,3075 34,7012
-60,8326 183,1522 173,3042
-92,2135 121,1781 73,5472
-67,3925 143,2303 106,4072
-34,3398 109,3075 34,5249
-39,5042 114,0664 89,8676
-41,5627 131,5602 104,1995
-57,2856 134,7751 102,2969
-32,5755 109,3074 40,3783
-38,8578 109,3075 40,6750
-92,2881 166,2687 149,2111
-42,9941 109,3075 36,1660
-52,5374 109,3075 61,1247
-18,9070 124,0448 98,2681
-33,6718 114,3075 25,0678
-54,5185 140,0986 108,8780
-61,6044 116,0308 85,3495
-77,7045 118,3317 78,5258
-76,5376 133,1719 93,9509
-57,6552 109,3680 83,7159
-49,3591 128,0028 101,3287
-68,3211 113,4131 81,0473
-108,2884 161,3987 139,3771
-43,8719 109,3075 41,0274
-38,4650 109,3075 54,8532
-46,7617 109,3075 37,7268
-27,0678 114,0573 92,2709
-64,3367 178,7231 170,5867
-33,6718 114,3075 25,0678
-8,1022 151,9065 123,4051
-32,5461 109,3075 33,7297
-39,4972 109,3075 45,5200
-47,9211 137,0345 105,0053
-33,6718 114,3075 25,0678
-38,6421 109,3075 33,1412
-33,6718 114,3075 25,0678
-33,6718 114,3075 25,0678
-96,3554 139,1826 88,0681
-37,3604 109,3075 37,4505
-31,6877 109,8915 89,9542
-63,3592 118,8974 85,6607
-39,0647 109,3075 33,0743
-92,4092 112,2062 70,0125
-160,5548 193,7734 150,7638
-33,4212 109,3075 35,7989
-57,2026 109,3085 57,2556
-39,0530 109,3074 50,3026
-26,8451 120,4435 94,5370
-43,6838 109,3075 37,0456
-73,3807 122,3356 82,2235
-48,2541 109,3074 38,9677
-38,8104 109,3074 35,4921
-34,6281 109,3075 36,9751
-40,5709 109,3074 30,5065
-82,8221 127,6325 88,6945
-52,0527 120,0388 89,6006
-44,2167 113,2728 88,6425
-55,5805 125,7593 99,2673
-107,2921 139,7943 84,5553
-76,6128 117,6212 78,7619
-43,3841 109,3075 36,4623
-33,6718 114,3075 25,0678
-47,0515 110,4641 87,0796
-37,0536 109,3075 34,6262
-143,4672 159,0016 124,7944
-78,0887 130,2944 92,0510
-49,8607 109,3075 43,8765
-94,8885 132,4702 85,1307
-39,8047 109,3074 35,4160
-44,6197 109,3075 36,9529
-36,9000 109,3075 44,5303
-73,2795 117,5855 80,3567
-51,3832 128,0113 100,9336
-33,6718 114,3075 25,0678
-42,9267 109,3075 32,8832
-33,2780 109,3075 37,0070
-41,5864 109,3075 54,1798
-31,1911 109,3075 36,9244
-32,6714 109,3074 39,5271
-94,4094 128,5256 83,8060
-45,2196 109,3075 35,9695
-68,2636 126,4813 95,2428
-53,6438 112,9480 86,6563
-33,6718 114,3075 25,0678
10,9615 194,6935 191,7700
-33,6718 114,3075 25,0678
-42,6968 109,3075 45,9786
-42,0803 109,3075 31,9630
-34,0107 108,7697 86,3302
-45,0321 116,6585 89,6981
-43,7111 120,8853 91,5251
-63,5207 132,8762 100,1130
-55,7086 174,7781 170,9452
-66,3223 113,4157 82,0198
-31,3346 112,9202 91,0980
-67,4844 115,0446 82,1215
-42,4921 109,3075 36,7160
-33,6718 114,3075 25,0678
-42,3777 109,3075 36,2263
-31,9789 131,0119 105,8934
-89,7114 127,5277 85,3205
-33,1526 109,3075 37,9778
-36,2093 122,9503 93,9563
-32,1975 109,3075 43,7626
-41,0585 118,3322 91,0874
-34,0843 109,3075 64,9458
-70,9959 132,6087 96,4037
-175,8611 174,8610 132,7872
-91,5045 121,5269 73,9062
-78,0644 135,5535 94,1601
-45,2306 109,3075 45,0066
-161,5206 177,0004 136,2351
-37,7146 117,3455 91,3878
-34,2717 109,3074 37,3382
-42,7986 109,3075 32,7751
-33,6718 114,3075 25,0678
-29,8504 109,3075 44,0132
-92,1330 142,8462 93,3214
-27,2453 118,6649 93,8651
-34,8031 109,3074 34,3675
-21,7427 109,3075 68,7793
-65,8305 122,2365 85,8177
-38,0486 109,3075 53,5759
-154,0456 158,9503 122,8135
-34,6583 109,3075 33,6966
-70,7170 143,1009 104,5138
-36,8391 109,3075 34,3746
-29,3923 109,3075 43,5186
-14,9923 109,2233 87,5530
-51,1955 182,8828 175,1490
-93,3976 133,9675 86,2625
-66,8348 117,0377 83,2379
-48,5922 204,8384 200,2815
-37,1321 109,3074 34,0174
-35,3504 109,3074 40,0703
-33,8840 109,3075 34,5461
-9,7253 127,4224 107,3314
-68,6253 114,2258 81,2363
-38,2858 109,3075 35,1522
-35,9578 109,3075 33,9828
-40,1324 114,3879 89,8557
-48,1774 135,1295 104,2352
-39,8454 109,3074 53,6809
-17,9041 122,9829 96,9687
-41,7315 109,3075 36,4335
-64,4946 128,6262 97,9256
-50,5912 109,3075 38,3400
-38,2785 109,3075 36,1797
-52,4498 125,5178 99,7931
-36,7869 129,7012 104,4449
-42,7760 111,8558 88,4291
-50,2391 137,2725 104,6355
-52,7727 109,3075 78,6455
-22,4968 109,4222 91,0598
-65,7187 112,4535 81,9143
-30,8156 109,3075 37,3822
-33,7194 115,0444 91,3729
-37,0509 109,3074 37,7374
-12,6372 121,4266 96,6856
-41,3530 109,3074 54,7269
-40,6931 109,3075 32,9146
-19,3771 121,3830 95,9375
-27,6269 137,9975 109,4899
-85,4402 125,8153 86,6986
-31,3721 109,3075 42,1204
-43,5799 109,3075 40,9895
-72,8586 119,1331 81,1834
-36,8570 134,4669 106,2304
-69,7032 119,7933 82,9684
-41,8367 109,3075 43,0273
-34,2695 109,3075 35,7162
-32,6497 109,3075 38,4389
-45,7346 109,3075 35,6077
-42,4859 109,3075 42,9484
-30,9519 134,7828 107,5209
-42,0925 194,3513 189,2064
-116,0044 161,0509 135,4449
-66,7111 203,9790 196,0841
-44,6576 109,3075 33,8143
-23,0080 114,7320 92,9968
-32,2311 109,3075 34,1031
-32,7939 109,3074 34,9814
-33,6718 114,3075 25,0678
-36,5027 137,1193 107,3022
-39,3548 109,3075 31,8334
-37,0332 109,3074 41,0189
-35,7995 109,3074 37,3458
-35,4060 109,3075 34,1618
-68,8671 114,7172 81,3226
-48,3674 109,3075 42,8217
-80,5752 114,3925 75,4974
-144,8960 157,9915 124,1549
-45,5355 109,3075 38,6517
-164,1525 193,6297 150,0435
-33,6718 114,3075 25,0678
-95,7434 133,9819 85,3859
-33,6718 114,3075 25,0678
-36,4765 109,3075 47,6697
-41,5403 109,3075 59,1420
-21,4061 115,5953 93,4925
-57,4305 109,3075 80,4829
-82,1801 113,3686 74,2928
-69,6188 164,9487 156,0456
-30,8261 109,3075 51,4170
-29,2238 109,3075 56,8920
-33,6084 109,3074 40,5471
-41,4266 109,3075 45,1247
-34,0927 109,3074 35,7936
-81,5148 114,3929 75,0409
-39,1720 109,3075 33,3623
-88,6389 163,6481 149,9408
-69,0747 109,4336 74,2368
-36,3828 113,1007 90,1507
-44,6315 109,3075 37,9258
-67,2318 129,6960 97,0395
-53,5169 109,3075 47,7905
-92,3156 137,7225 88,1205
-76,0999 111,7515 76,5776
-33,0907 111,6477 90,2954
-49,9747 109,3075 47,3686
-22,4735 109,3074 62,5273
-36,7177 109,3075 40,2446
-88,5044 134,7288 88,7741
-33,6718 114,3075 25,0678
-36,2138 109,3075 35,0814
-41,5877 109,3075 36,4033
-28,1279 109,3075 42,9824
-37,7565 109,3075 51,2535
-6,1415 148,8737 122,2523
-49,9365 123,6127 91,8271
-29,1063 118,2895 93,4466
-39,3811 109,3075 33,3704
-83,5408 131,6377 89,9471
-43,2656 109,3074 49,0201
-7,7830 134,7599 110,1741
-98,9815 136,0692 84,9644
-26,5903 109,3075 60,6172
-47,0928 109,3075 47,1048
-55,8620 115,8582 87,3107
-13,5237 132,8463 109,1710
-18,0464 142,0040 117,3409
-55,3034 123,4916 90,6958
-116,9319 172,8313 148,6816
-33,6718 114,3075 25,0678
-95,9140 137,6673 86,7276
-33,6718 114,3075 25,0678
-30,3970 109,3074 39,1869
-59,4664 136,9861 102,6971
-58,5820 109,3242 45,1960
-45,8516 123,4091 92,4561
-33,6718 114,3075 25,0678
-79,3285 119,2420 78,1131
-43,5668 109,3075 33,6717
-20,7988 196,5605 193,4671
-33,6718 114,3075 25,0678
-44,1987 141,2819 111,6058
-44,7786 135,6373 105,1011
-55,7525 109,3075 43,6235
-33,7606 109,3075 53,4925
-34,3563 109,3075 41,4998
-133,2765 173,2921 141,9247
-32,3001 109,3075 39,3808
-170,5132 179,9039 135,6400
-61,1119 136,0945 102,0366
-33,6718 114,3075 25,0678
-120,7257 193,7420 164,2115
-47,7404 109,3075 53,9580
-35,9227 109,3075 33,5076
-31,3202 114,0612 91,5051
-140,4269 192,7514 155,3116
-33,6718 114,3075 25,0678
-33,6718 114,3075 25,0678
-49,8485 109,3074 41,4835
-40,9295 109,3075 31,7884
-72,6450 109,4720 73,3224
-81,2916 137,8904 93,6102
-50,1891 112,0111 86,9992
-40,2478 125,7795 102,2914
-38,6171 109,3075 35,4121
-58,9651 109,3275 57,8108
-9,2469 125,8560 106,7721
-33,6718 114,3075 25,0678
-28,9469 123,5557 95,8346
-90,8620 178,9301 163,9631
-15,4448 115,9916 94,4802
-50,2423 109,3075 41,4832
-101,8221 137,1960 84,3260
-68,6094 121,9004 84,3446
-64,0431 109,3829 51,2206
-47,0743 109,3075 36,1124
-31,2263 109,3075 47,7114
-41,7466 109,3074 57,8676
-45,4673 109,3074 76,1482
-119,4857 166,6462 136,1569
-38,5927 109,3075 53,0635
-20,3662 129,7996 107,2413
-90,7124 109,7527 69,3707
-39,9872 109,3075 31,0298
-59,9718 141,5267 108,2111
-48,4478 125,5019 100,5745
-21,8275 119,8377 95,0121
-32,9973 109,3075 37,9706
-55,0344 114,2267 86,8636
-37,1569 109,3075 49,3222
-48,3683 132,3696 103,1553
-33,6718 114,3075 25,0678
-32,1658 109,3075 37,3483
-75,8020 165,6158 154,9863
-63,4058 114,7148 83,9516
-41,5066 109,3074 37,2617
-41,0832 109,3074 38,3636
-60,5079 167,0855 158,7843
-39,3376 109,3075 32,0484
-33,6718 114,3075 25,0678
-39,0207 109,3074 34,2946
-32,0625 109,3075 43,7515
-103,5849 198,4452 175,0014
-33,6718 114,3075 25,0678
-38,2515 109,3075 35,7494
-35,7534 109,3075 44,0862
-43,7237 109,3075 33,6395
-35,8754 133,5756 106,0886
-44,3656 110,6171 87,6718
-80,1005 124,2259 81,7121
-42,2050 109,3075 32,3800
-119,1567 194,8503 165,4322
-37,3195 109,3075 49,6145
-49,5450 109,3075 51,2729
-34,0223 109,3075 33,9994
-170,6769 178,8678 135,2283
-70,8184 192,0858 182,4713
-76,2392 144,2441 102,3050
-28,7118 120,5851 94,3389
-41,1205 109,3075 37,1019
-178,2955 183,2326 135,7314
-32,8440 109,3075 38,9765
-67,7872 134,4469 98,6926
-150,0033 163,4768 125,2414
-33,6549 109,3074 35,0818
-33,6718 114,3075 25,0678
-36,3784 109,3075 33,6963
-93,9358 127,5954 83,6293
-43,6556 109,3075 58,5833
-28,1408 109,3075 47,4412
-78,0961 122,8429 80,3433
-5,4669 141,0851 119,4168
-33,6718 114,3075 25,0678
-34,2861 109,3075 34,7603
-33,6718 114,3075 25,0678
-33,6718 114,3075 25,0678
-28,1696 109,3075 44,6709
-67,5238 116,0368 82,5026
-2,2888 191,9050 193,1434
-35,4844 109,3075 41,2681
-58,5253 119,0777 87,9942
13,0891 176,3875 174,8950
-96,9852 127,8327 82,5750
-58,0185 129,4001 100,1466
-47,9119 192,8025 187,6629
-31,8623 109,3075 33,7163
-98,0812 140,6525 88,8746
-36,4975 109,3074 37,5788
-40,9809 109,3074 31,6426
-33,7813 181,7390 177,6357
-43,8709 109,3074 33,3089
-45,9105 109,3075 35,4030
-20,7828 129,7745 107,1712
-64,2277 120,6341 85,9430
-38,0204 109,3074 37,6469
-41,6880 109,3074 47,8997
-40,7746 109,3075 30,8353
-45,9925 109,3075 35,5232
-39,9779 109,3074 31,6230
-52,9712 109,3074 55,7507
-43,8867 109,3075 35,1871
-39,8403 109,3075 40,7965
-36,7220 109,3075 42,6691
-70,5441 126,9124 94,3184
-36,5361 109,3074 49,0960
-16,3399 114,3950 93,7563
-39,4152 109,3074 53,3323
-34,3487 112,9336 90,4990
-84,6505 136,6111 91,3909
-25,7829 126,8591 105,3466
-22,8917 128,7531 106,4800
-81,9927 126,3196 88,5633
-33,6718 114,3075 25,0678
-29,4686 109,8550 90,3858
-64,8410 111,5024 81,9466
-68,8058 109,4919 78,3296
-50,7464 181,1918 174,4196
-43,8666 109,3075 47,3498
-44,5247 109,3074 39,4721
-30,4865 109,3075 35,5392
-33,6718 114,3075 25,0678
-35,1507 109,3074 34,5484
-35,6068 109,3075 35,4866
-36,4658 109,3075 41,4243
-87,9599 113,3342 71,8155
-66,6605 135,1612 99,5242
-41,1348 109,3075 32,9766
-38,6317 116,1800 90,7912
-44,5870 109,3074 37,5657
-40,0252 109,3074 32,4134
-74,4846 140,3568 101,2765
-90,1095 163,6236 149,2086
-29,0386 121,1139 94,4608
-31,1851 109,3075 42,2557
-45,4270 126,7533 101,6359
-33,9191 109,3075 48,9668
-108,5047 177,8926 154,8736
-29,0175 131,3865 106,5736
-152,0289 178,1959 138,4315
-46,7049 114,0678 88,4258
-30,8745 109,3075 39,2892
-51,0397 123,4299 91,4707
-36,0616 132,8741 105,7868
-128,6726 173,6026 143,8583
-41,1714 109,3075 52,9179
-85,2738 109,5385 65,1466
-91,0864 121,5041 74,0285
-84,7231 131,2478 89,2190
-24,6722 108,9374 80,6484
-147,6473 191,8795 152,4440
-33,6718 114,3075 25,0678
-42,0078 109,3075 42,5047
-49,9414 112,6397 87,2715
-143,4679 192,1335 153,8813
-97,3360 132,7245 84,3073
-35,2208 174,8225 174,8042
-35,7234 123,3473 94,3629
-81,4280 143,4599 99,0032
-86,9624 116,1708 73,2378
-61,7652 130,6103 99,8611
-30,7629 109,3075 38,8056
-31,6759 109,3075 35,7571
-57,3199 131,5816 101,0982
-92,2593 114,7672 71,0260
-36,7446 109,3074 34,0969
-33,6718 114,3075 25,0678
-33,0852 109,3075 36,2901
-32,4135 118,7575 92,9499
-37,4742 109,3075 39,0540
-33,6718 114,3075 25,0678
-38,7044 109,3075 33,7972
-31,7472 148,0597 116,9563
-32,6607 109,3075 40,7802
-37,8044 109,3074 35,6803
-37,9486 109,3075 40,5051
-78,5562 125,7931 90,0060
-21,6257 120,2068 95,1787
-58,8099 109,3267 44,8849
-54,9990 122,9120 90,2999
-36,3082 109,3075 37,4311
-40,3590 109,3075 30,6873
-24,6357 125,8265 105,1253
-28,5284 109,3075 57,3247
-40,6672 109,3075 39,1733
-33,6718 114,3075 25,0678
-44,8424 109,3074 39,6732
-30,8042 109,3074 47,1322
-49,3020 109,3075 50,8718
-32,2199 109,3075 40,6113
-40,6807 109,3074 31,6210
-27,0500 109,3075 48,6596
-163,5893 177,0099 135,8559
-79,3953 127,2959 90,2093
-68,4333 126,4816 95,1611
-69,9243 114,2256 80,6049
-34,8602 109,3075 35,4628
-38,3197 109,3075 32,8250
-73,4689 116,3969 79,7823
-51,5967 144,3995 111,1557
-60,0489 109,3394 55,7135
-78,2559 138,0109 95,1981
-22,1350 127,6791 106,1862
-52,1238 140,6125 109,6013
-28,2305 109,3075 56,7373
-39,7815 109,3074 36,3454
-47,1966 118,6562 90,0234
-11,0256 122,0661 97,0195
-15,4745 127,5952 107,1037
-41,3805 118,4992 91,0874
-50,0741 137,5269 104,8039
-81,8372 123,5698 79,1576
-51,1611 114,2273 87,6112
-33,6718 114,3075 25,0678
-31,3154 109,3075 34,8006
-33,4929 109,3075 34,7195
-74,4053 110,3201 76,7623
-37,3649 109,3075 51,6793
-45,9887 130,1641 102,7985
-34,6795 109,3075 40,3844
-63,3524 114,3888 83,8459
1,0208 190,5573 192,8932
-40,6510 109,3075 38,1755
-42,6563 115,6798 89,8079
-51,8005 109,3075 64,4397
-34,4669 109,3074 51,9225
-36,8038 109,3075 39,5837
-59,1521 111,9777 84,8954
-79,6657 115,0720 76,2212
-43,6759 136,6140 105,6886
-5,3257 149,0144 122,4457
-31,6661 109,3075 35,1365
-30,8834 109,3075 38,0820
-45,5046 109,3074 34,4421
-14,8147 130,3869 108,1840
-78,1737 180,0907 168,1451
-33,6718 114,3075 25,0678
-51,7828 109,3075 40,6632
-76,7258 165,2158 154,6393
-87,4617 114,7504 72,5256
-159,0155 192,1397 150,4400
-39,3902 109,3075 40,1811
-7,3511 191,8379 192,7318
-54,5279 109,3075 44,3809
-21,1315 145,3840 118,0528
-67,3664 136,3470 99,6586
-31,2517 109,3075 44,0461
-48,2307 109,3075 37,1834
-40,2901 109,3075 32,8323
-38,9470 109,3074 32,2837
-33,5817 109,3074 47,0635
-29,2288 109,3075 40,7521
-96,5159 126,2319 82,1487
-151,1236 183,3428 140,8630
-30,5328 109,3075 44,7541
-32,2507 109,3074 35,2355
-48,6504 119,1664 89,9327
-24,8504 130,2278 106,7487
-53,4055 129,9640 101,2646
-83,8947 140,7938 96,2546
-40,2065 109,3075 33,2389
-27,1709 126,5899 105,0432
-68,5815 192,6675 183,1714
-33,6718 114,3075 25,0678
-43,1499 123,8184 93,3636
-61,0160 109,3500 53,6293
-45,5260 109,3074 35,2259
-58,9324 109,3274 53,7118
-78,8812 118,7025 78,1077
-98,6428 127,5142 81,8366
-44,5208 109,3075 42,0428
