# .PCD v.7 - Point Cloud Data file format
VERSION .7
FIELDS x y z
SIZE 4 4 4
TYPE F F F
COUNT 1 1 1
WIDTH 1871
HEIGHT 1
VIEWPOINT 0 0 0 1 0 0 0
POINTS 1871
DATA ascii
-4,8330 109,3075 33,9314
-2,2540 109,3075 36,3703
7,7928 135,5289 98,2379
36,2875 129,1463 88,1743
8,5295 189,5565 179,4994
2,6918 133,3224 98,3484
-24,8888 127,1132 103,0322
-1,7230 109,3075 43,4139
-5,0701 109,3160 40,3997
26,6328 143,3428 101,3484
12,7871 130,2892 95,4265
3,8535 113,6505 82,7279
36,8691 167,3633 150,0989
-0,7411 109,3075 44,4273
-8,7474 114,3075 24,9785
-53,8922 132,4015 115,7697
28,1135 130,8248 92,6421
0,0142 132,4967 98,5275
6,4815 111,7737 81,5496
-3,5491 109,3075 34,8576
-18,6304 109,4197 41,0806
4,3959 122,4364 85,9175
-9,6795 109,3136 33,6025
-12,9704 109,3441 33,8429
-25,3980 112,0596 90,2827
-8,7474 114,3075 24,9785
-11,9756 109,3513 36,3709
-6,6666 109,3075 35,0980
-0,8934 109,3075 38,0177
85,4842 205,1573 171,6646
-33,4518 122,9345 97,3224
-18,9073 127,9141 101,6617
-19,3177 109,3658 50,5739
-34,0891 127,1097 106,1540
-6,5696 109,3075 33,9205
-38,5299 123,8956 100,6855
24,4858 109,6669 76,7111
-5,0434 109,5499 77,4804
-12,5010 109,3331 32,7609
16,2246 115,9068 81,3527
13,7250 132,4150 96,0405
-7,6320 109,3086 35,6520
23,8090 121,7267 82,0948
-11,3370 109,4044 45,6704
-8,5202 109,3133 35,1664
-29,7097 109,9387 91,0068
-7,8037 120,5880 87,5502
-53,1567 135,6932 117,0533
-2,2306 112,2062 83,2631
-14,0850 109,4968 56,4842
-8,7474 114,3075 24,9785
9,3111 128,5870 95,4272
4,3415 109,3075 48,8681
-5,7041 109,3075 36,9708
-10,1607 109,3221 34,2682
-16,8993 109,4084 38,5515
77,6418 195,3315 162,3468
-23,6273 118,4688 92,0346
33,0981 175,4732 161,8720
-14,9395 109,3850 37,5833
-9,9326 160,5397 156,8733
-8,7474 114,3075 24,9785
13,3295 109,3075 59,1634
28,2862 182,3150 165,2341
-3,1276 109,3075 38,7239
-34,6883 122,4221 97,5018
16,7601 121,4930 83,3184
-5,6208 110,6262 83,2677
-13,1579 109,3642 36,7692
-8,7474 114,3075 24,9785
-22,7995 129,5298 103,3343
6,9129 109,4450 78,0312
-102,8297 177,3488 178,2652
-5,5888 109,3075 36,9410
30,4932 145,6459 102,2407
-31,2768 190,6268 195,0226
-41,2517 130,8866 110,6152
59,0892 177,6985 154,6560
9,1187 136,4490 98,3354
-1,8374 109,3075 34,8247
-92,0792 176,8992 182,9165
-14,0493 109,3715 36,6827
15,0004 118,8608 82,6662
-10,1357 109,3332 36,0716
-20,3065 195,7805 191,8678
-18,4898 164,7304 160,8924
-2,9344 109,3299 45,5813
-25,4227 131,1258 104,6468
-10,6269 109,3256 34,1785
28,7460 208,4378 191,0437
-8,7474 114,3075 24,9785
-23,7663 109,1353 75,6483
24,0534 120,7090 81,5700
-15,1847 113,7654 87,3495
-13,1826 134,6113 102,5424
-6,7817 139,7911 104,5200
-8,7474 114,3075 24,9785
-8,7474 114,3075 24,9785
-70,3377 163,2016 178,2829
-0,9269 109,3480 51,2391
22,0074 137,0722 96,2526
-4,7150 109,3075 39,2704
-2,7000 109,3075 36,0794
10,9907 109,3075 55,3810
8,3275 139,8966 102,3374
-13,1917 109,4327 47,5633
-16,5881 109,4523 45,9394
-16,3106 109,4044 38,7459
-29,7128 194,4901 195,8343
-11,9579 109,3476 35,8100
-26,6595 130,5780 104,7905
-2,5852 109,5353 78,9163
-8,7474 114,3075 24,9785
-5,0336 111,9104 83,6496
-88,2985 165,8833 171,4529
17,1205 128,1895 93,8630
-10,4876 109,3409 36,7996
-3,6827 123,3620 88,1046
-6,4109 109,3568 45,0022
-12,9759 109,3744 38,6388
-22,5429 109,2508 52,7228
-1,4061 163,9566 155,9499
-7,8790 109,3075 34,1408
56,4561 210,7073 186,6767
3,1829 109,3728 60,8923
-9,2780 109,4150 50,2200
-2,5377 109,3075 34,3446
7,2836 133,5494 97,6082
-14,0274 109,3614 35,1034
-58,8943 128,6848 114,2151
-64,1350 130,4521 114,7352
-7,0489 121,3778 87,6074
-7,1728 109,9240 83,0375
-96,5947 157,3556 164,3174
-9,3732 109,3320 36,9322
-86,5655 164,3279 171,6103
26,1859 112,8292 77,3944
-14,5986 109,4160 42,9579
-8,8392 109,3399 38,9295
5,8236 130,3777 96,7146
31,8461 125,6997 88,8424
-10,5819 109,4697 57,0612
14,7665 111,1353 79,8342
-8,7474 114,3075 24,9785
45,1004 191,3796 173,7883
-6,9078 109,3365 41,0806
-41,6349 121,3402 100,4610
-28,3629 109,0279 61,3040
27,6656 117,2670 78,4911
-8,7474 114,3075 24,9785
6,1059 116,7696 83,5086
-8,0044 109,5126 67,4598
22,4327 122,1872 82,5435
24,8492 141,3282 100,8227
-11,9115 109,4519 52,4000
29,3528 118,4337 78,1718
-46,1782 109,1759 90,4749
8,8198 109,3075 49,5048
-8,8867 109,3858 46,1448
-15,9080 112,2238 87,0358
-45,3282 111,3780 98,1045
-8,4800 109,3335 38,4174
-3,5106 125,8684 96,7449
-8,7474 114,3075 24,9785
-4,7155 125,6999 96,9100
-18,9674 192,2189 189,7873
-14,6539 109,3640 34,6540
-12,1172 109,4062 44,8687
9,1584 176,9684 166,5774
64,5538 181,0452 153,5766
-14,1225 134,0229 102,5833
-8,7474 114,3075 24,9785
-8,6123 109,3583 42,1681
-12,6511 109,3426 34,0572
-21,4079 177,3354 176,0820
-0,3056 141,2570 103,9191
-63,1927 118,9644 104,7982
34,2881 144,7528 99,6415
-1,6647 115,5646 84,4344
-12,0197 109,3330 33,4156
16,4120 112,2901 79,9789
-15,6876 109,4500 46,8392
18,6109 207,6105 192,4966
-7,8447 109,3075 33,6164
-16,7040 109,4074 38,6705
0,8901 117,9842 84,8963
-8,8891 140,4520 105,2405
-77,4214 178,4955 190,1413
17,2142 114,5351 80,6662
-9,4140 109,3372 37,7108
-10,8670 109,3993 45,5154
-6,5813 128,1526 98,3322
-8,9374 109,3097 34,0154
42,1969 173,7415 159,6542
-43,3725 117,2515 99,4988
1,1188 137,3402 100,0938
-5,8859 119,4271 86,6481
-3,9258 130,0695 98,3495
-33,9108 117,7236 95,3281
-10,3456 109,3398 36,8223
-8,7474 114,3075 24,9785
-9,3954 109,3901 46,1168
-40,3793 113,4369 96,6355
-8,7474 114,3075 24,9785
-8,7474 114,3075 24,9785
-5,1656 109,3075 33,2247
-2,4564 109,3075 33,7616
-72,3453 175,7442 191,3274
-23,1685 137,9268 106,5206
41,1084 144,9383 96,7512
-30,3492 108,9451 90,2857
-27,6024 163,7269 164,7055
-3,0357 109,3075 36,5678
3,7734 109,8277 81,0635
-19,1159 111,8605 88,0204
-10,8398 109,3548 38,5125
-16,7457 113,1368 87,6628
40,3356 210,5043 189,7963
13,0947 129,8863 95,2215
-2,8192 122,8155 87,5240
14,4524 109,3083 66,3716
7,8447 138,0768 99,3002
-36,8742 114,5887 95,4789
-6,9735 109,3634 45,2509
39,1674 174,4491 160,4410
33,5288 129,8923 89,7547
-30,7265 119,2862 94,7919
17,3840 121,5105 83,2114
5,4593 112,7803 82,1127
34,1732 129,7018 89,3789
13,6109 177,9020 166,1496
-5,5970 109,3075 36,2479
-4,3366 116,9287 85,4263
-16,8524 118,4234 89,7396
-15,2432 115,1670 87,9171
-35,5486 109,1770 92,6287
-21,2978 174,1908 174,7682
-10,1854 190,7877 185,0108
-13,6265 109,4172 44,5066
-9,7575 109,3876 45,2036
-8,7474 114,3075 24,9785
-3,1727 109,3075 34,6502
33,3416 210,0230 190,8319
-10,8360 109,3372 35,7290
-40,6274 121,6854 100,1158
-42,8786 116,4194 98,9006
-62,5923 130,0515 114,6316
2,2642 109,3219 51,5458
-6,6875 109,3775 47,8842
-15,5546 167,8998 161,2888
21,2692 119,3097 81,6923
-28,0494 109,0318 63,3327
-12,8703 109,5177 70,2541
74,0570 198,2743 165,4928
1,2479 125,6160 95,7905
-8,7474 114,3075 24,9785
-15,9307 109,3996 38,5139
-59,8732 160,5069 177,0844
-14,8693 109,4129 42,0935
-6,2784 113,2064 84,3619
44,0720 195,4180 175,4583
-56,2938 161,0977 177,2813
-10,7314 109,3843 43,3361
-3,8557 109,3075 33,0997
23,7968 118,5435 80,8170
-7,5682 109,3075 34,6783
-11,4834 109,3817 41,8674
-4,7818 109,3075 39,1641
-12,9148 109,3974 42,3682
-1,2390 109,3075 37,7903
-13,2970 179,9328 173,3900
-9,9114 109,3673 41,7837
-60,1043 116,7496 103,8891
24,9526 115,0137 78,8525
-8,7474 114,3075 24,9785
-12,5841 109,3347 32,8844
-74,5998 177,9687 191,2001
-11,5988 109,3536 37,2675
-8,7058 109,3367 38,6179
-35,1888 173,3287 181,0509
9,4290 141,6766 102,8630
-16,0795 112,5273 87,2070
-82,6435 147,7086 157,9717
-13,1562 109,3528 34,9658
-34,9891 114,5832 94,6203
65,2551 179,5313 152,6554
-6,4876 109,3075 35,8356
-4,5647 109,3863 52,2367
-4,4438 109,3075 38,8187
1,8906 109,3206 50,8201
-21,1937 109,2017 81,7130
7,6531 166,0139 154,6734
-32,6176 178,4441 181,8794
23,7142 111,4648 78,0013
-9,7070 109,3807 44,1941
-1,6093 109,3075 36,4510
-8,7474 114,3075 24,9785
-3,2962 110,0909 82,4914
5,4763 132,8908 97,6922
-12,3184 128,6911 100,1136
-3,4619 112,9226 83,7534
-99,4766 172,1730 177,7056
-4,0279 109,3075 38,3213
-2,3213 109,3283 46,1831
-8,7474 114,3075 24,9785
-12,8757 128,9366 100,3583
-10,2754 109,3206 33,8675
-40,2426 114,0169 96,7930
-36,9732 109,2773 93,3257
-11,5211 109,3905 43,2101
-8,7474 114,3075 24,9785
-12,6545 109,3701 38,3969
-18,5025 165,1797 161,0700
27,9324 143,5025 101,2466
-2,7142 109,3075 36,5116
4,0313 126,7681 95,7119
-57,9560 176,9537 192,4743
5,2627 109,3075 45,4616
-9,4502 109,3555 40,5562
15,5423 134,2146 96,3704
-4,3362 109,3075 39,2860
-60,9739 111,6650 101,9425
-20,3594 109,3570 42,5417
20,0247 124,2332 85,5489
-7,1564 110,8974 83,6436
-7,8766 109,3560 42,8175
0,0493 109,3306 49,8481
-10,9201 109,3356 35,3586
9,2035 114,8261 82,2215
-8,7474 114,3075 24,9785
-3,8633 109,3075 33,7918
-4,9808 120,3735 86,8455
-7,8447 109,3075 33,6164
-9,8954 116,5174 86,6512
-61,1361 116,5286 103,8042
-0,1546 109,4157 63,0373
-7,7025 113,4957 84,7248
-2,9620 141,2928 104,2640
-13,5429 109,3512 34,1743
-47,0882 114,8291 100,2596
-15,8826 109,4671 49,2651
1,2650 109,3085 48,0295
-6,4149 109,3942 50,9163
-7,8631 109,3951 49,0362
6,1004 113,6490 82,3277
-16,3393 111,3031 86,8482
-11,1212 109,4561 54,1541
22,6929 127,0175 92,4180
-4,3536 111,2010 83,2600
-12,2980 109,3417 34,4013
-23,8036 109,3820 88,4794
7,9073 109,3951 71,0043
-51,7720 132,4141 115,2908
28,9796 178,7366 163,7919
-11,3894 109,3590 38,4044
71,2724 178,4357 149,5417
0,8314 109,3488 53,8134
-11,6723 109,3437 35,5922
52,5134 196,1553 173,7925
-2,7758 109,3075 41,1160
-13,2730 109,3450 33,5558
-9,7028 109,3408 37,8722
-12,4888 109,3553 36,2897
-8,7474 114,3075 24,9785
-29,7562 137,4229 108,2119
-42,4144 181,4910 187,7794
-14,2110 109,4914 55,4440
-8,7474 114,3075 24,9785
-53,0067 118,6996 104,6334
37,2137 195,3991 176,6407
-11,5585 109,3326 33,9830
-67,1435 133,0049 115,6566
-30,0275 192,0776 195,0129
-8,7474 114,3075 24,9785
-85,2092 145,2326 155,8313
-15,7451 109,4195 41,9230
-3,9022 109,3075 37,1629
-8,7474 114,3075 24,9785
-10,2602 109,3664 41,1601
-2,4511 109,3075 34,9369
-14,6209 109,3781 36,9347
-1,3900 109,3943 57,9349
-22,0068 109,2524 57,7541
35,2784 127,6394 88,0339
-62,0205 124,5687 112,2457
7,5362 127,9658 95,5192
15,4819 109,3376 72,6847
-24,4244 109,1796 55,2180
-9,8126 109,3271 35,5482
-8,7185 109,3106 34,4532
-5,4805 109,3075 33,9392
-11,1761 109,3456 36,5816
-3,2970 127,4303 97,2755
33,5766 137,0711 92,6391
-10,9591 109,3306 34,5107
-40,7043 136,1762 112,3268
-6,0113 109,3075 33,4879
-8,7474 114,3075 24,9785
23,9250 193,5266 178,2531
-18,2984 109,3365 70,0682
27,9048 118,4161 78,8425
37,1499 180,8150 163,1426
-34,0605 175,1146 181,2326
28,9083 134,3753 93,7069
-20,9519 175,1259 174,9781
25,9693 120,2249 80,4779
-14,3570 109,3659 35,3667
-23,4979 109,2159 53,5991
-17,8004 120,4852 90,8697
-47,6327 113,5771 99,9845
-9,0389 109,4151 50,5618
-8,1398 109,3075 33,8963
-12,1499 109,3581 37,2102
-1,4538 109,3113 44,6885
-22,1012 137,7773 106,1713
21,5787 137,7653 96,6776
-5,4726 111,0523 83,4027
-7,9455 180,1576 171,9977
-8,6348 109,3075 33,8647
21,6117 130,6585 93,9620
-6,7433 165,3582 157,8572
-8,7474 114,3075 24,9785
16,4411 114,3830 80,7506
31,0727 133,0814 92,1809
-32,5362 126,4868 105,2357
-1,2407 118,6081 85,5116
-2,0583 109,3163 44,6389
-5,7926 123,5828 88,6591
-15,9227 109,3952 37,8192
15,3410 118,0752 82,3142
-3,9404 129,4547 98,1282
-10,9056 109,3262 33,8897
-6,3521 109,3075 34,5133
-13,1934 109,4309 47,2885
-53,4814 160,8926 175,9000
-25,2336 117,8217 92,3402
8,4710 117,3895 83,3099
12,8714 112,0251 80,5083
-43,3438 111,2420 97,1513
-11,4246 117,7980 87,6691
-12,7475 109,3852 40,6670
-3,5912 109,4020 56,0799
69,3388 207,3309 179,6467
-16,1924 109,3992 38,0789
-26,8132 109,1086 52,4466
-12,3294 109,3989 43,4159
-8,7474 114,3075 24,9785
-33,3991 127,4845 105,9958
-31,9349 114,3967 93,4184
61,7736 181,9483 155,1751
-8,0745 109,3149 36,0314
-18,3037 109,4056 48,7649
4,8658 109,3075 44,9844
-8,7474 114,3075 24,9785
-2,6556 109,3075 35,5472
-0,6633 115,7127 84,3124
-7,6611 109,3120 36,1533
-5,5130 109,3600 46,7556
-4,6762 109,3075 32,9944
52,0516 167,0297 144,6882
12,0836 109,3075 61,9364
-0,3673 167,9159 157,3676
-14,7668 109,3985 39,9612
12,9879 121,8950 84,1527
-0,9299 109,3075 37,7476
7,1362 115,5679 82,8702
-8,9683 109,3390 38,6099
-18,6218 109,7326 86,8751
6,8344 109,3290 59,0414
-12,9399 109,3821 39,9108
-13,0189 109,3530 35,1822
-1,1459 109,3075 38,1665
-7,2552 109,3075 34,1153
-8,7474 114,3075 24,9785
-4,3621 109,3124 40,8124
-53,7127 122,9817 106,8296
8,6995 109,3075 54,5850
6,5861 126,7764 95,2514
20,8545 138,5110 97,3817
-14,3820 109,3943 39,8235
-12,2675 109,4830 56,8309
-49,7065 111,0349 99,9641
-28,8591 112,5011 91,6509
25,8972 118,3958 79,7741
-10,3472 109,3442 37,5164
6,6330 109,3075 47,0069
29,2209 130,4155 91,9634
-10,6889 109,3623 39,9077
-58,6994 116,4971 103,7888
-10,3230 109,4853 59,9014
-9,6032 109,3456 38,7789
-13,1336 109,3503 34,5996
-3,6643 109,3075 34,0478
38,1855 162,7141 148,1531
-8,7474 114,3075 24,9785
-20,9201 139,7171 107,6657
-17,5569 109,4464 43,9383
-39,0989 118,5093 97,9746
-15,7956 109,3792 35,4735
-10,2366 109,3313 35,6270
63,1383 180,4455 153,9638
-38,2502 108,9031 68,4555
-11,9646 129,5000 100,3139
-15,0747 160,2847 158,1063
-12,0744 119,4265 88,5285
-5,9785 109,4445 59,4899
31,9795 135,1444 92,5932
-4,0833 109,3075 38,5796
-7,2646 114,3816 84,9824
-8,7474 114,3075 24,9785
-8,7474 114,3075 24,9785
-1,5643 117,8359 85,2768
18,9558 114,0786 80,1810
-13,9218 109,4011 41,5532
-8,7474 114,3075 24,9785
48,1385 177,5599 159,4722
28,6905 120,0960 79,1521
15,6995 121,6300 83,5619
-4,0379 109,3075 38,0918
-11,7845 120,5685 88,8805
-30,7080 115,9978 93,5785
-7,1230 109,4121 52,7610
-31,6694 108,8707 75,5803
-11,4557 109,3357 34,6247
-27,8537 127,1429 103,8674
-7,3603 109,4494 58,3389
-8,7474 114,3075 24,9785
-14,7559 109,4754 63,8436
-1,6833 109,3075 37,3715
-42,3422 162,8216 171,3675
-17,1601 109,4230 55,2215
-85,7878 176,7780 185,6955
-15,8515 118,0655 89,2623
-7,3305 122,9126 88,5052
-11,8364 109,3702 39,5615
21,7437 125,5868 92,0607
-7,5471 109,3082 35,7136
22,1409 138,3546 97,0380
-1,7941 109,3454 49,6226
-3,5532 109,3075 37,3418
-3,4126 109,3075 40,5354
32,6918 137,0341 93,0325
-30,1374 114,7473 92,9207
38,5513 143,9227 97,4502
-8,7474 114,3075 24,9785
-11,2320 109,3516 37,4464
-16,6073 109,4297 42,3298
21,0813 125,9537 92,3167
-33,1236 125,4370 105,0903
-11,7701 109,3510 36,5998
-0,4795 109,3075 40,0689
-0,7934 109,3138 46,0055
-3,5441 109,3075 34,2100
-5,9815 109,3763 48,6827
-21,8943 109,2875 48,1119
-8,7474 114,3075 24,9785
16,5166 116,8372 81,6432
-29,2891 115,9766 93,0763
-62,0762 130,2906 114,7484
-5,6729 109,3075 33,5391
-4,6748 109,3075 38,4173
23,3084 140,6633 100,7671
18,9431 124,1607 85,5124
-1,9904 117,9915 85,4115
-18,4974 109,3837 53,5303
-9,0716 109,3412 38,8140
-15,1462 109,3796 36,4296
6,6124 172,6202 165,4135
4,9554 109,4557 76,8744
-15,6904 109,3808 35,8744
-12,3597 131,0120 100,9827
27,5092 111,1309 76,1159
3,1578 132,2527 97,8752
-4,7988 109,3075 35,3415
-16,6203 109,4410 55,2470
4,7185 132,0394 97,5179
-12,4187 109,3517 35,8147
-66,6740 133,5434 115,8859
9,6406 118,7928 83,6155
-9,1443 109,3132 34,2722
-48,0353 120,0357 103,0460
-20,2318 109,2674 71,4189
-61,2928 116,0598 103,6287
-62,6816 129,2250 114,2926
13,2708 129,8913 95,1915
-11,9364 109,3362 34,0311
-99,8561 166,3755 166,4533
-9,4713 109,3708 42,9431
7,5772 121,6433 85,0434
-33,6871 108,8970 67,1912
29,9615 190,2296 175,9875
4,8515 131,4100 97,2648
5,3458 130,9952 97,0251
14,2004 176,3946 165,4907
-2,0542 176,8560 169,2276
-21,5038 109,2514 63,2349
-68,8784 130,4865 114,0517
-3,9785 109,3084 40,7149
0,3104 110,5122 82,1695
-7,5848 109,3075 35,3764
-8,7474 114,3075 24,9785
-6,1330 161,8364 156,3780
26,5900 132,4836 93,7342
-66,7786 151,0300 164,5450
-53,6513 110,6932 101,4019
-8,7474 114,3075 24,9785
26,7343 196,0143 178,6856
-12,0384 109,3568 37,1490
11,7471 109,3075 59,1895
-13,3230 109,3519 34,5830
2,6260 109,3075 41,6066
7,9186 126,3980 94,8695
-4,5500 119,8892 86,5855
-9,8093 109,4977 62,5736
-68,9387 129,6339 113,6799
-4,8782 109,3205 41,3792
-13,0550 109,3667 37,3012
15,4947 130,7924 95,1215
-56,2695 133,4344 116,1067
-10,8318 109,3911 44,2646
58,2491 194,3021 170,5111
-5,9602 109,3176 39,4115
-16,7632 204,7618 202,6500
-22,7157 109,2267 58,3458
3,6618 134,8421 98,7281
-1,4470 136,0304 100,0765
-34,8753 190,5742 196,7195
-8,7474 114,3075 24,9785
-7,0100 109,3108 36,8732
16,4878 114,6860 80,8540
-18,7663 114,2277 88,7674
-7,2671 109,3149 37,1557
8,7083 129,5887 95,9073
-8,8886 139,7071 104,9614
24,9129 111,3058 77,3760
-11,4825 109,3328 34,1249
-7,1804 109,3075 35,1902
-3,5058 109,3075 33,2248
29,2633 133,4816 93,1815
-2,7430 109,3075 41,4477
-9,9011 117,2954 86,9593
-50,8909 132,8248 115,1115
-12,0823 109,4046 44,6631
-8,7474 114,3075 24,9785
-9,1362 110,5807 84,0729
-8,2387 109,3238 37,2129
-4,5455 109,3075 34,7810
-61,5784 124,8196 112,4657
-2,7416 109,3075 37,3139
-16,7451 110,0887 86,4786
-9,3751 109,3137 34,0414
39,8575 182,6680 163,4532
-10,4165 109,3515 38,5804
-11,2861 109,3822 42,2233
-16,7991 109,4003 37,4154
12,1541 112,0303 80,6378
18,2968 133,0405 95,4452
-2,7175 109,3292 45,7743
-0,2648 109,3832 57,7423
25,6877 121,7500 81,2247
-25,2577 192,3771 192,8569
61,5624 190,7968 167,6408
4,0026 134,6213 98,5866
6,4110 128,9570 96,0903
66,0376 175,0400 150,4996
-4,2240 109,3075 34,8670
-12,3723 109,3499 35,5934
-6,7646 127,3588 98,0887
-5,8897 109,3398 43,0222
-8,8897 109,3173 35,2883
-15,6672 117,5709 89,0057
-10,1825 109,3658 41,1692
22,6603 130,2975 93,6381
-11,0173 109,3855 43,1158
-13,3556 109,4515 83,3531
-4,1943 109,3265 43,2892
-8,1905 109,4037 49,9472
-1,6373 109,3075 40,8232
-15,7371 109,4023 39,2068
23,2270 111,7705 78,3526
-9,8266 109,3235 34,9641
-8,7474 114,3075 24,9785
5,8563 160,1180 152,8047
-12,4651 109,3541 36,1277
-34,0936 123,4228 98,0499
-0,7520 111,2142 82,6244
-30,6059 118,3566 94,4087
-4,8909 109,3075 37,9284
-44,4096 136,0530 113,7452
3,0472 109,3888 63,2338
-12,4952 109,3617 37,2955
40,4311 190,3557 174,2194
16,5315 117,9341 82,0456
-13,8924 109,4088 42,8077
40,3444 141,4001 95,6513
-9,1329 109,3114 34,0062
-91,8114 147,9876 153,9613
-15,3916 109,3716 34,8205
-0,1414 109,3075 43,6727
-1,6739 112,2074 83,1645
3,8103 109,3372 56,1204
-22,1863 110,0568 88,4225
16,3324 161,7011 151,5728
-38,6498 179,1834 185,0563
-5,1588 109,3187 40,6968
42,2580 182,3261 162,8148
-6,9572 125,3997 97,4204
-5,7852 109,9374 82,8063
0,7762 109,3727 57,5301
5,1438 109,5793 80,2755
-5,1107 114,6770 84,7112
-8,7474 114,3075 24,9785
-14,4718 189,0372 186,3486
-27,4281 180,7001 180,3063
28,6092 121,8012 79,8777
21,0421 182,0616 166,3969
-9,2337 109,3139 34,2665
-9,1420 109,3128 34,2180
-13,9045 109,4043 42,0747
-47,7655 109,2356 82,4778
-13,3661 109,3438 33,2439
16,5958 131,0448 95,0151
-2,7378 121,3168 86,7981
-15,1631 117,0747 88,6410
-12,4206 109,4058 44,3834
2,9486 112,7833 82,5604
-18,9322 109,3812 49,8095
-27,2724 130,1902 104,8192
-19,4818 135,2852 104,5269
-10,7036 109,3709 41,2441
-8,0117 109,3797 46,3986
34,5499 173,1323 160,7555
-9,7238 113,0423 85,2258
5,1911 109,3891 66,2720
27,6996 117,4301 78,5410
-2,7188 109,3075 39,5235
-3,1236 110,6420 82,8295
25,0644 112,0662 77,6117
-9,3179 109,3218 35,3956
-1,1171 109,3075 37,5776
-1,4887 119,5489 85,9121
55,8248 164,9488 142,1641
-9,1037 109,3135 34,3845
-53,3620 118,9422 104,8196
-6,8951 109,3075 35,9870
-18,8641 113,1178 88,3941
-9,9202 109,3162 33,6695
1,5701 117,3708 84,5431
-20,9236 109,3331 44,0873
-9,5275 109,3343 37,0866
-63,1752 121,9180 106,0233
7,8654 134,2078 97,7437
-6,0094 109,3075 35,8775
-24,0147 114,7245 90,7787
-11,0984 109,3647 39,7154
-10,8952 132,1928 101,0167
-11,0794 109,3254 33,5208
-6,3696 109,3075 36,6851
-54,4137 128,1222 114,1119
-9,4748 109,3214 35,1263
-36,3263 116,8514 96,0869
-7,5369 109,3356 40,0663
-8,4537 109,3714 44,4525
-35,0022 138,8327 111,2640
-12,3947 132,9728 101,7186
-16,6315 109,4502 52,2998
-8,7474 114,3075 24,9785
0,2969 110,3744 82,0844
-49,5836 182,7411 191,8310
47,3642 203,7372 186,0772
-58,0710 153,7653 166,0776
-34,5271 175,7799 181,7226
-19,8925 116,0139 89,8154
1,5272 138,0634 100,3901
-92,5777 175,2279 182,0252
-21,5213 180,5756 177,4359
-22,1423 109,2909 44,5149
-8,3604 109,3571 42,3296
7,1332 121,6388 85,1224
-16,4447 109,4518 53,7187
-2,1857 120,3469 86,3383
-13,1848 109,3597 36,0236
32,9749 194,5058 177,0456
32,4673 127,1391 89,1355
-23,1717 126,1334 102,1968
8,2142 109,3075 51,6634
-7,2687 113,9379 84,8151
-17,6850 178,9420 174,9487
22,6183 134,8446 95,3288
-56,3652 113,5206 102,5614
3,3209 109,7029 80,9328
-8,7474 114,3075 24,9785
12,2679 110,0265 79,7362
-7,3456 109,3785 47,1241
6,6100 133,9756 97,8841
-18,8446 112,8033 88,2719
-58,2298 130,8189 115,0520
-7,7904 109,3075 34,8235
-8,7474 114,3075 24,9785
14,6801 119,8140 83,0765
-8,7474 114,3075 24,9785
-11,5703 109,8198 84,3730
-13,2555 122,3238 90,0657
-23,2224 194,8433 192,8810
28,7294 193,0952 177,2604
-41,8969 129,7339 110,4499
-2,0883 109,3075 35,5109
-43,0735 111,2506 97,0317
-69,2952 130,2122 113,7448
-14,7828 109,4655 84,8676
-0,5226 109,3075 39,7363
-12,7443 109,3385 33,2654
-4,9915 109,3207 41,2493
-83,1865 159,3447 171,1376
11,5525 135,6127 97,5947
3,3505 126,7688 95,8357
-25,1026 182,1969 179,7962
-22,7418 123,7109 94,3319
-11,2058 127,3932 99,3301
-8,7474 114,3075 24,9785
11,0961 119,9160 83,7657
-57,4610 160,7357 177,1492
17,4352 121,8447 83,3256
-20,5615 120,4395 91,7798
-1,6828 139,7849 103,5365
27,9815 129,1200 92,0152
7,8515 141,1155 102,8484
-8,7474 114,3075 24,9785
-8,7474 114,3075 24,9785
-2,8587 130,6631 98,3745
-92,9288 167,0587 169,8414
10,4080 129,2109 95,4591
-8,9760 109,3146 34,7331
-9,9296 109,3392 37,3038
-12,3477 109,3555 36,5111
-4,5361 126,0824 97,0066
-12,4485 109,3382 33,6434
-31,7770 138,0865 109,3390
-9,4401 109,3276 36,1494
6,5710 126,5814 95,1819
-0,9136 109,3075 37,1729
-28,8437 110,8091 91,0245
-14,0189 109,3694 36,3956
17,3684 123,4138 84,3200
3,8517 109,3075 46,3585
-56,1264 109,4935 97,3952
-10,4314 109,3432 37,2353
-7,6296 129,4329 99,0951
-14,1339 109,3819 38,2017
5,0896 116,6156 83,6310
-3,3582 109,3075 36,1156
-8,7474 114,3075 24,9785
-11,4223 130,0924 100,3840
-8,7474 114,3075 24,9785
1,8057 121,1307 85,9033
-85,7538 179,0588 186,6215
-18,0198 109,4185 47,7409
15,0964 109,3075 63,5072
4,8353 113,6500 82,5531
21,2243 114,6943 79,9960
-51,0971 135,3331 116,1237
-13,4713 109,3638 36,2627
-10,9413 116,0657 86,8249
-6,2104 109,4917 66,6487
-6,0180 131,0053 99,2336
-41,6824 168,0180 173,4001
-6,2234 109,3683 47,0707
5,7651 137,0865 99,1687
-4,2386 109,3075 39,0009
-22,8109 139,4504 107,9891
-28,9599 114,9173 92,5728
-42,8759 128,8714 110,5222
-50,2944 130,0671 113,8357
-34,3104 136,2762 109,7223
-20,1069 109,2634 73,9366
7,7133 167,3314 155,1496
-18,7674 111,5567 87,7874
5,9036 109,3075 54,1727
-10,1167 109,3412 37,3688
5,5041 197,7218 183,4554
19,4619 174,4489 163,8594
-0,5153 109,3075 38,7201
-6,7097 195,5788 185,7437
17,2859 125,4292 92,8112
-8,7474 114,3075 24,9785
-27,4609 132,2699 105,6315
-10,3713 109,3560 39,3559
-18,3535 121,2042 91,3386
-21,2178 119,7705 91,7371
-2,9876 109,3075 33,0199
-14,5378 167,2130 160,5704
-43,7031 159,9087 170,8423
83,8043 191,8342 158,2164
-11,8258 109,3513 36,5842
3,3356 109,3075 46,2957
-1,1662 109,3075 41,3429
64,8359 191,4911 166,4695
-8,7474 114,3075 24,9785
-17,0911 109,4260 41,0726
-16,1088 109,4743 50,2599
-28,1176 188,9958 192,8515
6,0140 114,2340 82,5646
-38,5029 130,7455 109,4463
-4,1056 109,3075 38,0018
-80,9240 163,2324 173,7081
-16,6034 140,2130 106,8825
-8,2177 109,3087 34,8533
17,1798 111,5446 79,5599
-13,0603 109,3494 34,5607
-10,9972 197,2335 188,0131
-8,8516 109,3096 34,1233
-69,3894 150,0038 164,1627
-8,8259 109,3075 33,7129
5,7973 109,3359 58,6857
-3,2599 109,3075 36,6756
-7,1458 109,3075 35,2510
-17,1382 109,4116 38,7235
-47,3445 115,6729 100,7628
7,2369 126,3918 94,9909
-1,9437 109,3075 37,9086
-17,9988 109,4245 39,5745
-14,7293 109,3595 33,8395
21,4124 125,7701 92,1886
-2,4896 137,1987 100,6889
-5,3457 117,0866 85,6656
-22,1317 113,5729 89,6998
-15,0550 109,4106 41,4769
6,6831 109,3075 47,8915
-7,4789 109,3202 37,7089
-51,0770 125,0065 112,2044
35,8665 210,8698 190,7067
15,7951 122,2974 83,7909
20,0632 115,1557 80,3775
14,4548 143,2530 102,8898
-18,2252 109,4201 45,1223
-8,7474 114,3075 24,9785
-8,7474 114,3075 24,9785
-15,9412 109,4543 58,1516
-26,1405 119,2710 93,1951
-7,7303 109,3398 40,4554
16,7105 126,3866 93,2700
-8,7474 114,3075 24,9785
-12,1469 115,6127 87,0519
-21,1569 109,3224 44,9804
-1,8816 109,3075 37,8757
-16,6143 109,3926 36,4524
28,7858 176,7157 163,0790
-14,0332 116,5756 88,0648
31,3757 126,7024 89,4653
-7,1155 109,5592 76,0730
-23,3063 109,2312 50,8861
5,3014 109,3552 61,0640
-73,2337 182,1452 193,6505
2,5139 109,4792 77,1916
-4,6913 109,3075 33,0608
-11,8624 109,4735 55,8882
-8,7474 114,3075 24,9785
1,9511 109,3075 40,3801
-5,1488 109,3080 39,0170
-21,5151 116,8715 90,6960
7,3962 122,6361 85,5275
-8,7474 114,3075 24,9785
-17,3196 126,9660 100,8739
-6,7821 109,3097 37,0123
-10,2169 109,4079 47,7874
-42,9238 116,6237 98,9986
-10,2548 161,4213 157,2879
15,4831 188,8019 177,9705
-34,9409 126,0699 106,1281
16,0571 131,0230 95,1048
-2,5962 109,3075 39,6196
41,4306 173,1878 159,5826
46,8978 198,4064 176,4725
-59,0705 129,5123 114,5286
-17,6203 114,3866 88,4263
-99,3238 161,8463 164,8858
-16,6284 109,4353 43,1864
-10,8720 109,4860 59,2398
-8,6925 109,3642 42,9816
-12,1594 130,1452 100,6065
-40,8415 110,7511 95,8284
-39,6873 138,1530 112,8085
2,1703 109,3075 40,4559
-33,1040 108,8436 73,6680
-11,2346 109,3642 39,4476
-14,1419 109,3558 34,0591
-3,5390 109,3075 35,5466
-50,7291 160,6877 174,5054
2,4121 131,4152 97,7038
-12,7623 132,5638 101,6684
16,0050 129,1619 94,4253
-9,9377 109,3827 44,1737
-3,0076 117,8419 85,5358
-22,7501 109,2207 59,8326
-13,2111 172,7613 170,5888
1,6778 119,0693 85,1653
-17,5103 109,3734 66,8444
-11,2844 109,3314 34,1846
-7,8631 109,3951 49,0362
-2,3739 109,3075 40,4609
24,6778 131,2685 93,6314
18,0897 119,0764 82,1842
9,1129 175,9722 166,2175
-10,5849 138,3704 103,4092
12,6014 140,5804 102,0617
12,0110 112,0313 80,6637
-26,2613 109,0356 80,6089
-12,4576 109,3814 40,4603
1,5134 109,3075 45,9251
-12,5195 109,3539 36,0247
-6,0203 120,2261 86,9746
37,7931 197,2688 177,2315
4,5493 109,3075 50,1015
-4,2789 109,3075 33,2759
-4,1585 109,3075 35,0743
-9,4770 122,6591 89,0226
-1,9858 109,3170 44,8520
-2,1160 118,4565 85,6099
-37,1115 113,2800 95,0912
-2,0159 109,3320 47,1911
-17,6322 109,3910 60,1787
20,1449 118,3122 81,5283
-5,3619 109,4124 55,2577
23,9683 125,8794 91,7653
-38,3707 137,0584 111,7268
-41,5320 137,6826 113,2700
-49,8325 127,9318 112,8478
26,1301 117,4177 79,2707
62,2361 188,5008 166,4232
-8,7474 114,3075 24,9785
4,1974 109,3075 45,7836
-112,6067 178,0143 174,1367
-26,6476 166,2436 165,2652
-11,4810 109,4646 54,9974
-8,7474 114,3075 24,9785
-57,0833 123,6838 107,6980
-17,2030 109,4172 39,5292
61,2207 178,8042 154,1543
-18,3286 109,4168 45,0903
-35,1887 114,3995 94,6414
2,8204 109,3075 44,2883
-58,6037 111,9278 101,9881
83,7647 204,3156 172,0830
-23,9971 134,6574 105,5408
2,3714 112,4965 82,5545
-8,7474 114,3075 24,9785
-12,9955 109,5026 58,9222
-15,2481 109,3780 36,0422
-13,3274 109,3697 37,4044
-13,3121 109,3427 33,1474
-4,4814 109,3075 33,1335
9,7555 127,7958 95,0536
-20,3145 109,3494 45,3321
17,9482 111,6830 79,4757
-64,2933 133,6029 115,9689
-36,3997 183,1013 185,8444
-9,5780 109,4061 48,3924
-7,2744 109,3075 34,5781
32,3281 177,9147 162,9075
-11,2546 109,3651 39,5640
-8,7474 114,3075 24,9785
27,8930 133,4554 93,8063
-54,5893 113,5284 102,5701
-15,1139 128,8882 100,9629
-3,4991 109,3075 39,2670
-32,5327 109,1528 91,4754
-14,9463 109,4158 42,4413
-5,8232 109,3584 46,0615
-8,6116 109,3174 35,6903
33,5294 136,8330 92,5637
-16,4798 109,4202 41,0103
-2,4603 109,3075 37,6582
-8,7474 114,3075 24,9785
18,7483 111,9708 79,4403
7,3883 118,1533 83,7888
-5,9511 109,4950 67,5305
25,0046 133,2420 94,3026
-10,8258 118,7420 87,8394
-4,8521 109,3075 35,0555
-8,5520 109,3113 34,8001
11,1662 115,5786 82,1511
-12,8067 109,3914 41,5643
74,2491 192,6475 162,7692
-69,5420 163,5994 178,4335
-62,2399 165,6996 179,1937
-13,2326 128,3387 100,2391
1,5237 124,2077 88,8346
-28,1615 109,0405 59,5259
-8,7474 114,3075 24,9785
0,8957 109,3075 43,4124
-2,1565 109,3882 55,8983
-20,0350 109,3709 41,6126
63,1022 174,8719 151,7382
-15,2091 140,8300 106,8344
-30,3751 109,4161 90,8958
-8,7399 109,3246 36,6400
76,4184 210,4724 177,7925
-16,9601 132,2807 102,7196
-7,6812 109,3075 34,5143
-10,4797 109,5223 65,5428
26,6229 115,6514 78,3278
-76,6364 172,8745 188,2535
-15,5276 121,9258 90,6728
-6,2393 109,3431 43,0618
-11,7650 109,3624 38,4242
-14,4563 109,3861 38,4337
-13,4108 109,4765 54,2103
-6,5152 109,3105 37,5067
-25,7480 117,3118 92,3323
33,2789 137,8193 93,2546
-17,6247 109,4138 38,4055
-21,9609 132,3400 104,1279
-5,8151 109,3075 35,0914
-8,7474 114,3075 24,9785
-5,9377 109,3272 40,9705
-1,9645 109,3124 44,1548
16,4143 141,5763 101,9587
-8,7474 114,3075 24,9785
-36,2453 181,7757 184,9479
-8,9363 109,3094 33,9636
-5,0259 137,1024 101,2185
-6,2694 109,3075 35,7133
-1,0372 119,8628 85,9507
-92,2588 182,1563 185,1198
19,6778 122,0848 83,0065
19,0608 128,0637 93,4643
-9,4539 117,7573 86,9907
32,3145 144,3931 100,3535
-64,1997 123,5129 107,1209
-86,1130 157,4831 169,0784
-18,8837 113,4334 88,5167
-8,7474 114,3075 24,9785
-61,4652 163,1190 178,1500
-9,0385 109,3186 35,2826
21,1112 178,4556 165,0528
-11,9835 109,3771 40,4392
27,2156 111,7460 76,4860
-22,5033 109,8922 88,4115
13,3338 128,8745 94,8036
-16,5189 109,3955 37,0461
7,2939 131,4261 96,8329
-11,6978 109,3716 39,9718
0,5203 109,4611 71,1750
-4,0969 110,4961 82,9425
51,5868 210,9933 188,0249
-58,1328 126,4930 113,3574
-13,2524 109,3559 35,3182
35,4943 131,9177 89,6609
-21,6895 158,8315 159,9079
21,0854 129,5873 93,6609
-12,5694 109,4230 46,8968
12,6912 114,9809 81,6532
-53,2467 121,7419 105,9813
-12,5039 109,3934 42,3011
-2,6167 109,3127 43,2862
-8,7474 114,3075 24,9785
-2,8345 109,3075 35,6483
19,5335 163,4346 151,6579
-5,5576 109,3075 33,0565
21,5694 179,9965 165,5426
22,0931 177,9723 164,7040
18,4207 144,1777 102,9788
-27,1156 130,8531 105,0178
-6,1822 110,4815 83,2942
-45,5931 114,8209 99,5288
-10,9724 109,3468 37,0503
-6,6817 109,3075 34,2314
-0,3544 109,3075 37,3769
-37,6757 182,9016 186,2859
-3,1388 109,3075 40,5953
-7,7305 109,3075 34,9407
-18,5352 109,4101 45,0245
3,1915 109,3075 44,6919
-5,6014 109,3075 33,2352
-9,8576 109,3421 37,8565
1,2288 109,3075 42,4806
-9,0034 116,5062 86,3469
-14,6602 109,4300 45,1045
-9,9988 109,3652 41,3323
-4,5687 109,3687 49,4529
-35,9919 131,5933 108,6945
-8,7474 114,3075 24,9785
16,0463 141,8025 102,0881
-10,7684 109,3463 37,2664
-6,2162 109,3075 35,4814
2,0631 128,1541 96,5785
-6,0411 109,3075 33,8319
-1,4283 191,2110 182,7154
-16,3421 131,3426 102,2020
-10,7540 109,3661 40,4089
6,1279 121,9557 85,4222
-33,2818 116,4053 94,6251
-17,2089 109,4184 39,7020
-10,5843 109,3516 38,3480
-7,4768 109,3245 38,3844
-13,9612 109,3589 34,8028
-8,0315 109,3677 44,4562
15,6209 133,3470 96,0403
-8,7474 114,3075 24,9785
-0,2160 161,7226 154,8038
-9,4840 109,3146 34,0315
-32,2267 109,5004 91,6299
-97,9219 176,5417 180,1483
-6,4194 109,3075 34,8466
-4,5755 109,3236 42,2889
6,6924 113,9407 82,3329
-28,0351 110,5011 90,6297
60,1524 178,2476 154,4046
17,4767 128,2027 93,8032
-22,2344 109,2626 52,2668
-2,5916 117,3794 85,2866
-30,0371 108,9825 58,0374
-5,7278 109,5645 78,8500
-8,3165 109,3839 46,6337
15,6516 114,0818 80,7829
-11,3852 196,0845 187,7330
-38,8567 131,2881 109,7985
-7,2471 109,3075 34,7555
14,0131 128,6917 94,6127
2,3837 109,4117 65,9345
-3,1348 109,3075 33,8084
-9,1293 109,3397 38,5004
-7,2047 109,3429 41,6827
13,8230 130,1135 95,1735
14,9723 142,7481 102,5751
0,3841 109,3075 40,7331
-3,8166 109,3075 33,0761
-22,9985 109,2428 50,4820
-7,5795 109,3418 40,9840
-50,1004 174,9433 188,8125
-37,3808 120,0163 97,7647
-1,4089 109,3393 49,1939
-13,3788 109,3887 40,3319
-16,2909 109,4502 55,8007
-13,3343 109,3549 35,0398
-13,2153 109,3605 36,0994
-13,6284 109,3415 32,5178
-4,3933 109,3075 33,4002
-67,2235 132,1407 115,3026
3,7679 130,7859 97,2316
-8,7474 114,3075 24,9785
-7,8409 109,3987 49,6398
30,0140 136,7090 94,1366
30,1004 138,2417 95,0799
-3,3428 109,3075 32,5626
22,2666 111,9288 78,7851
-11,4945 121,8957 89,3054
-16,4528 138,8432 105,3139
20,9967 115,1596 80,2092
-41,5561 118,8268 99,3013
58,3420 194,9087 170,7129
1,7903 132,9005 98,3563
19,8427 213,5047 194,8957
-7,5194 109,3075 33,8322
-6,7233 109,3075 35,8820
34,5548 166,7402 150,2706
54,7614 203,8682 184,6863
-2,1556 109,3491 49,7020
-32,6910 118,2455 95,0945
-111,4444 180,2162 175,5376
-34,0891 127,1097 106,1540
-8,5156 133,9808 101,0236
-16,2576 109,3943 37,2147
-90,3531 149,2238 155,1105
33,1290 136,5808 92,6457
-14,6930 109,3682 35,2668
7,4861 177,5173 167,0702
-5,7113 109,3075 33,4966
-11,6139 111,5467 85,2909
-89,4161 163,9069 170,1608
-9,4683 140,0029 105,2023
-3,8038 109,3075 38,2399
2,8743 111,7824 82,1946
-6,1062 109,3075 35,6002
-8,3511 109,3259 37,3873
-24,8888 140,3622 109,1447
25,0832 181,1335 165,3531
-10,2950 109,3493 38,3908
-15,8974 109,3832 35,9646
-8,5563 120,2881 87,6851
-16,6503 109,4601 49,0649
-18,9191 136,1603 104,6960
-15,4081 132,1366 102,2388
-8,7474 114,3075 24,9785
-56,6919 122,1238 106,1290
-28,5444 114,7411 92,3633
-59,8082 110,3322 101,4065
-23,6120 126,5873 102,4851
-15,5107 109,3793 35,8797
4,5353 207,8772 195,6855
0,5121 109,3106 47,3186
2,6731 116,7633 84,1168
-13,3662 109,3770 38,5039
-16,1732 109,4627 48,1749
-90,4734 153,7494 157,4173
22,1447 121,4970 82,3410
-58,3100 113,9658 102,7598
-4,1844 109,3075 37,5884
-54,4293 157,8137 175,1110
-7,5979 109,4383 56,2500
-11,7526 109,3293 33,1927
-13,3967 111,0687 85,7367
16,4738 142,0881 102,1410
-9,5601 109,3176 34,4049
31,1623 164,7701 150,1320
-19,3745 125,6652 100,9699
0,1560 164,2526 155,6566
8,5546 123,1813 85,7412
-12,6785 109,3352 32,8368
-36,4429 108,9110 66,6500
-8,7474 114,3075 24,9785
13,1437 142,1179 102,5659
-4,4226 109,3075 33,8072
2,3714 112,4965 82,5545
21,9517 142,5673 101,6405
-8,7143 109,3192 35,8270
-11,2423 109,4331 50,3469
6,4815 111,7737 81,5496
-8,7474 114,3075 24,9785
-12,3373 109,4039 44,1966
27,1340 132,3065 93,5700
-13,0655 109,3707 37,9284
-63,6218 122,9594 106,6884
-12,2282 109,4237 47,4933
28,6193 119,7580 79,0491
6,2151 109,3504 61,5751
-81,6168 160,7783 172,4160
13,9234 112,3093 80,4288
-9,9918 110,2799 84,1733
-4,1154 109,4008 55,1649
-6,7945 109,4864 64,9857
4,4555 109,8249 80,9430
-47,5391 116,3133 101,1448
36,5080 141,4068 97,3254
-29,3573 108,9955 61,0418
-15,3876 109,4453 66,6021
-24,7407 174,0859 176,3701
-8,7474 114,3075 24,9785
-12,3071 109,3575 36,8827
30,2698 127,9106 90,4659
-37,0586 131,7548 109,2079
3,6790 109,3349 55,5821
8,3639 182,1246 168,6192
-14,6095 110,8921 86,0945
-3,9012 109,3075 34,0292
-17,4844 126,3606 100,6985
10,2534 131,2648 96,2437
-61,5412 123,9588 108,2724
-4,6873 109,3850 51,8694
-21,4765 116,3687 90,4976
-0,3087 109,3467 51,8883
-12,4225 109,4203 46,6712
-14,2531 113,9224 87,0945
71,9438 193,6601 164,1955
-93,2610 143,3988 151,4789
-13,4876 109,7615 85,0251
-1,9195 109,4032 58,5935
-25,4941 165,0276 164,2252
0,3884 161,2539 154,4716
-5,7356 111,9070 83,7732
23,7342 110,8605 77,7482
-12,8497 109,4051 43,6781
-5,5113 129,5230 98,5451
41,7642 181,2321 162,4963
-2,8350 118,6158 85,7982
-34,2459 114,2164 94,1576
-3,4239 109,3096 41,6724
-82,9801 147,7161 157,8235
-3,0651 109,3075 33,6849
-8,6742 109,3091 34,2879
-1,7900 109,3075 34,7913
15,1303 210,4256 194,1403
-4,2839 109,3135 41,0946
-52,2225 130,0538 114,5647
29,0376 140,0228 99,8206
-33,3557 108,8585 71,8915
-8,7474 114,3075 24,9785
-12,3059 109,3471 35,2374
-11,7949 109,3581 37,6951
-13,6477 109,3527 34,2660
4,0631 109,4006 66,5288
12,2317 112,6121 80,8444
-77,1258 157,3681 173,0742
-17,9448 109,4081 51,7015
-10,5192 109,3367 36,0847
-7,9269 109,3449 40,9955
-14,9785 109,4080 41,1598
-42,5337 109,0134 79,1447
-43,6518 159,4380 170,6281
-4,7074 109,3075 33,8103
-7,5201 109,4658 60,7096
-18,8257 122,8437 92,3134
-5,4514 109,3534 45,7894
-3,5758 109,3075 41,0625
-105,1857 179,1978 177,9442
-14,3712 109,3714 36,2206
-22,4292 109,2674 48,7857
-15,6970 109,3768 35,2198
-11,3135 109,4202 48,1987
11,0993 140,9997 102,4030
22,9090 127,2287 92,4570
-6,6651 109,3075 33,9991
39,8896 145,6655 97,5769
-4,8165 109,3152 40,6262
-54,5090 129,9973 114,8301
-9,2707 109,4331 53,0911
-41,2787 188,9760 199,1299
-40,6916 158,7403 168,9350
22,9495 123,8653 83,8356
-25,1323 109,0553 86,1561
-31,1960 127,2297 104,9341
-15,5775 109,3743 34,9917
-3,3700 109,3476 47,7723
-13,9613 109,3823 38,5183
-55,0323 110,2297 101,2101
-25,5009 126,9483 103,1422
-8,7474 114,3075 24,9785
-48,9501 136,9371 116,0512
-8,7474 114,3075 24,9785
-0,6587 109,3158 46,5181
-4,2853 109,3312 43,8925
-103,3971 163,5659 163,7399
3,0488 109,3075 42,9581
-17,5686 167,7921 161,8956
-23,4373 132,7303 104,6810
-16,3179 109,3980 37,7220
-8,7474 114,3075 24,9785
-24,9596 125,4224 102,4341
16,2123 121,9758 83,5963
41,4374 189,2955 173,6534
-40,7682 131,3167 110,5810
-7,3053 109,3075 35,7565
-13,1917 109,4327 47,5633
35,1270 130,1653 89,1238
-25,3873 136,0340 106,4306
10,4951 135,8065 97,8547
20,5241 110,1635 78,4042
-91,7296 151,0175 155,2069
29,7185 179,2840 163,8659
-3,0989 109,3075 33,3226
-7,7578 109,3251 38,1048
-93,8417 156,2934 165,1298
-6,0647 109,3075 34,7561
6,8176 132,0510 97,1459
14,4356 129,3129 94,7660
24,8550 109,2646 75,6613
-3,3752 109,3075 40,5225
-16,9940 195,3350 190,1087
0,1306 109,3075 37,5002
-10,0020 109,4586 56,1154
33,4427 175,4954 161,8205
-94,2584 180,3985 183,3342
-17,8530 109,4392 43,0719
-4,0706 109,3075 32,4152
-9,5900 109,3139 33,7626
-10,1274 109,8608 83,8801
-1,6535 109,4400 64,7921
-27,6339 109,0756 54,1512
-8,7474 114,3075 24,9785
-4,2882 109,3075 32,8456
-8,7474 114,3075 24,9785
-14,5702 114,0757 87,2614
24,8493 137,8099 96,1470
14,3182 178,4032 166,2120
-15,3336 121,2277 90,3328
-13,4348 109,3948 41,2222
-44,2937 120,6741 101,4813
-6,0568 128,1268 98,1782
-13,1647 109,3491 34,3668
-8,7474 114,3075 24,9785
-3,8592 109,3081 40,8333
-4,0435 109,3075 36,3273
-58,1547 127,8275 113,8984
10,9725 109,3075 57,0155
18,8315 115,1508 80,5996
-8,1568 109,3543 42,1724
-62,5213 164,7307 178,8083
8,3663 109,3903 70,8865
-18,1280 191,3436 189,0312
-5,6893 109,3075 34,2588
-9,0030 109,3221 35,8886
-21,1840 109,2178 76,8741
2,2132 109,3311 52,9326
-96,4387 162,1963 166,3218
-11,5449 109,3428 35,6285
-5,7136 109,3075 34,6529
10,9112 117,0981 82,7586
-6,9856 109,3372 41,0869
-71,7912 152,8335 165,0482
-4,4213 109,3075 32,9196
13,4056 113,7860 81,0802
-17,7016 109,4152 38,5217
-10,4917 109,3333 35,5839
8,5568 109,3075 54,6686
-12,7826 139,5599 105,7803
-13,5197 109,3612 35,7893
-20,4381 127,1898 101,8227
-8,7474 114,3075 24,9785
-10,1407 109,3284 35,3037
-6,4224 109,3075 36,2853
-37,6176 137,4388 111,5606
3,2744 109,3075 43,3984
2,1974 109,3374 53,9121
-57,8429 163,6988 178,3419
-8,7474 114,3075 24,9785
-8,7474 114,3075 24,9785
-9,3539 109,3116 33,7353
-24,7746 116,9415 91,8572
-22,4174 126,9188 102,2740
-8,7474 114,3075 24,9785
29,8269 120,6256 78,8336
-6,2889 109,3075 35,8677
-18,6568 109,4031 45,9087
-2,8107 109,3075 34,5200
-36,2275 113,6585 94,8328
-25,6880 109,7715 89,4715
-9,8007 109,3218 34,7246
-28,0890 117,5513 93,2360
-3,8955 109,3988 55,1434
82,1911 191,0672 158,6218
-11,6867 109,5544 68,9503
-12,2304 109,3515 36,0417
13,2708 129,8913 95,1915
49,6799 188,4365 171,9075
19,9330 142,6324 101,9145
-14,5706 109,4624 50,3528
3,7083 175,7818 167,3252
2,9316 109,4120 66,7561
18,9984 118,9337 81,9663
-53,6696 119,1812 104,9178
-8,7860 109,3895 46,8633
-19,8731 165,4598 161,7185
40,9094 194,5098 175,6710
9,3177 136,6796 98,3838
36,8402 204,1435 188,0531
-5,9485 109,4177 55,2842
-29,3968 129,5050 105,1595
7,2521 109,3075 50,0165
-10,2327 109,3202 33,8753
-16,2009 109,4068 39,2713
-96,6275 175,9262 180,4842
-5,6326 109,3075 34,4309
25,7820 140,6673 100,4624
-44,3532 118,7526 100,6540
-7,5580 113,6429 84,7548
24,4965 145,2324 103,0522
27,6318 117,1042 78,4413
-2,3234 109,3075 35,2481
3,9933 109,4139 68,5263
-27,6604 112,1831 91,1164
-78,3491 158,3297 172,9079
-10,6330 109,4184 48,8641
-0,2546 123,1436 87,3124
-7,4277 109,3346 40,0601
-33,9061 189,6372 195,8773
-8,8010 109,3326 37,8337
-22,8281 109,2588 47,3125
-77,0863 148,4694 160,7723
-14,8999 110,4379 86,0290
8,6556 137,3502 98,7467
-44,5852 109,0992 78,9012
43,6556 176,8362 160,5444
-8,7474 114,3075 24,9785
-2,6440 109,3075 35,0563
-16,3702 109,4184 40,8808
24,5619 128,3303 92,5648
-23,1799 109,2432 48,4931
-3,4850 109,7043 81,9591
-2,1035 111,9208 83,1324
-9,8425 109,3604 40,7896
-12,7671 109,3495 34,9838
-10,5410 109,3229 33,8673
-22,3453 131,9288 104,0845
-13,0443 109,3931 41,4983
-7,7559 109,3138 36,3095
-8,7474 114,3075 24,9785
41,2696 174,6315 160,1438
-73,0034 166,2468 178,4727
9,3473 118,7901 83,6679
-8,0596 109,3075 34,1021
-7,0009 109,5356 72,4929
-7,0417 109,3303 39,9086
8,6309 114,8254 82,3231
-27,6550 117,1842 92,9500
-8,7474 114,3075 24,9785
10,7609 131,0675 96,0809
-7,9711 109,3075 34,3706
-45,3548 125,2297 110,1156
-16,5474 136,8258 104,2893
-102,8074 157,1889 161,4596
9,1546 183,3829 169,3392
-53,2724 134,8551 116,7283
5,1052 109,3075 48,8785
-7,0676 109,3919 49,6336
-5,5597 126,5133 97,4437
-20,0615 109,3189 57,3444
-13,3310 109,4015 42,4283
-18,4656 117,4718 89,9073
-8,7474 114,3075 24,9785
-6,7403 109,3109 37,2680
-17,1016 130,9742 102,2778
-6,0180 131,0053 99,2336
-6,3587 109,3649 46,3429
9,4045 120,6943 84,3607
0,6955 112,3533 82,7983
-7,6945 109,3246 38,1015
36,5581 175,7144 161,3610
-8,3306 109,3145 35,6204
-10,4906 109,3260 34,4366
24,7394 120,5473 81,1836
-16,8979 116,1369 88,8550
-10,5813 109,3615 39,9239
-19,7389 109,5441 87,1285
33,2285 130,0957 89,9760
-10,9397 109,3313 34,6378
32,6339 134,9387 92,2068
-4,9660 109,4516 62,0251
-9,4303 109,3116 33,6293
-6,9654 115,4259 85,3247
14,0046 123,6638 85,1253
3,4675 109,4474 73,1117
-26,2094 116,2783 92,1138
1,0757 116,3107 84,2295
19,5858 109,3075 67,4912
-14,8487 109,3638 34,3531
-2,1613 109,3075 38,8434
-64,1273 176,6085 192,4051
-15,7889 109,3911 37,3687
-31,3777 130,6711 106,3330
16,4178 111,4069 79,6433
7,6933 109,6738 80,1854
-57,6631 120,7189 105,5432
-4,4196 119,2543 86,3218
-31,4192 179,1722 181,5992
-8,2684 109,4197 52,3645
14,8854 109,3075 64,8624
2,8635 121,6156 85,8901
-3,6806 109,3075 34,4414
-60,9843 122,0684 106,0926
-12,9334 122,3070 89,9509
-10,9262 109,5642 75,9988
-10,0602 109,3536 39,3950
-8,7474 114,3075 24,9785
-2,9062 112,7793 83,6003
-10,3930 109,3242 34,2830
11,6592 109,3075 60,1860
-35,9345 123,1789 98,7390
-43,6095 109,4936 96,3785
-8,7474 114,3075 24,9785
-12,0780 109,3871 41,9042
-10,0570 175,3127 170,7228
66,1622 195,1263 167,3416
7,7384 142,1195 103,2407
-8,7474 114,3075 24,9785
80,9707 195,6707 161,0108
-34,1411 120,6024 96,5145
21,7276 116,5798 80,6008
8,4645 126,7936 94,9169
-10,4706 125,7548 98,5270
52,1115 183,5500 160,6002
7,6627 120,9965 84,7890
-4,0289 133,2377 99,5220
-12,5192 109,3414 34,0498
-16,0192 121,7785 90,7801
-0,4904 109,3075 37,1760
-4,7680 109,3513 46,4151
6,6454 109,3075 52,5980
-7,2326 109,4083 52,0034
11,8163 122,2003 84,4784
77,0422 192,2982 161,3935
-47,4091 122,2335 103,6794
8,8549 137,5837 98,7960
-80,5058 158,3469 171,9448
15,8408 109,9704 79,0739
11,6672 126,2585 94,1377
-8,7474 114,3075 24,9785
0,1158 111,9247 82,7391
-12,0199 109,3966 43,4823
-3,3055 109,3075 39,4698
-16,4414 116,7754 88,9528
-1,1827 109,3075 40,6113
6,0956 134,1892 98,0541
-22,7152 158,6257 160,3140
19,5362 122,7745 83,4279
-9,6166 133,8466 101,2771
34,5500 142,0871 98,4518
1,5909 109,4253 66,9870
11,2027 115,8807 82,2561
-39,0023 110,4478 94,8778
24,3881 110,7046 77,3872
18,9890 135,5027 96,2219
1,1902 115,8609 84,0388
-70,3186 172,4072 190,7944
-25,0324 112,0666 90,1579
-79,8992 173,9560 187,2171
-7,9310 109,3169 36,5498
58,9740 165,9712 141,1731
-42,4069 110,6925 96,5175
-64,1997 123,5129 107,1209
-8,5912 109,3751 44,8511
22,8517 194,0994 178,6510
-27,2992 112,3576 91,0546
-6,9528 109,3141 37,4748
-18,1048 109,4226 39,1317
72,5547 198,1246 166,0320
-16,3867 109,3939 72,1347
-27,0344 122,0707 94,5974
-12,6435 109,4000 43,1557
-8,9289 109,3233 36,1790
61,2757 177,2800 153,5160
12,9967 116,1934 82,0454
-71,6030 153,3295 165,5326
-17,5652 109,4392 42,4999
24,9975 134,3496 94,7139
36,1598 129,3533 88,3171
-7,7436 109,3167 36,7774
-13,2213 109,3658 36,9386
29,7136 136,0005 93,9895
17,7747 109,3075 67,1515
-21,2535 109,2815 56,5457
-9,7473 109,3330 36,5771
-14,1946 109,3743 36,9270
11,6811 123,6011 85,4988
-8,7474 114,3075 24,9785
-9,6493 109,3923 46,0984
-1,8595 109,3203 45,5473
-3,1451 109,3075 35,8146
9,3155 167,8186 155,2094
-63,0284 167,8896 180,2587
56,5125 179,6711 156,5945
-12,4213 109,4584 52,7078
39,5037 142,9180 96,6274
-53,5148 131,8231 115,5569
-6,4109 109,3568 45,0022
4,6884 128,9495 96,3978
-7,1339 109,3075 36,0246
-7,1283 113,6437 84,6787
-1,4588 109,4488 66,4629
11,8930 128,4355 94,9026
-2,6874 111,2086 82,9665
-4,5792 109,3075 38,0498
-5,3554 109,3335 42,7730
4,1128 125,4151 95,1963
33,9858 138,6819 93,6603
13,0691 126,4830 93,9664
-35,6739 109,5158 92,9451
-4,6640 109,3503 46,4001
4,8162 133,5329 98,0443
-3,6929 109,3083 41,0967
-7,1359 109,3075 34,5559
-3,0654 109,3075 34,6738
-81,3239 165,7444 174,5322
-8,8521 111,3040 84,2486
1,3310 118,1379 84,8761
-20,1785 109,3170 56,6957
-2,1864 110,2321 82,4069
-8,0128 168,3674 159,7049
-1,3995 137,3958 100,5653
-34,5723 110,7998 93,0174
18,2300 138,5711 97,8820
-13,2874 112,5620 86,2467
-10,1591 109,5146 64,7736
-10,1631 109,5550 71,1612
-8,7474 114,3075 24,9785
-3,9203 109,3075 35,4641
-22,5613 109,2406 55,6698
-17,6072 175,7804 173,6435
-3,9829 109,4565 64,1708
-10,1817 135,4688 102,0335
-5,9238 109,3075 34,7164
-13,6482 109,3424 32,6289
-10,3328 109,3267 34,7649
-12,1476 109,3765 40,1290
-48,9445 192,2079 204,0873
-49,8141 135,3851 115,6359
0,8901 109,3075 45,9135
23,2191 138,7296 97,1428
-45,1850 123,8995 103,8960
8,3668 123,0011 85,6353
5,0793 196,4644 182,9929
1,2653 109,4171 65,2459
-3,5846 109,3075 35,3908
0,4637 126,9814 96,4380
27,6021 119,7429 79,5192
-3,5393 109,3075 33,5315
38,5781 143,1184 97,1114
-4,4485 109,3075 36,7699
-16,5543 109,3974 37,2955
16,2341 125,3983 92,9906
-4,8192 109,3075 35,9164
3,0282 136,1817 99,3296
5,2999 109,3763 64,3904
-8,7474 114,3075 24,9785
-38,7137 116,5249 97,0481
-13,1297 109,4376 48,4382
7,7640 161,7375 153,0727
-13,3211 109,3558 35,2058
-10,6877 109,3765 42,1568
-21,6807 167,2888 163,3188
-26,4734 140,3789 109,6661
6,8520 123,6947 86,4487
-4,4372 109,3075 39,7106
-13,3197 109,3814 39,2614
-0,8237 133,5858 99,0743
21,0812 120,9571 82,3349
-15,1014 119,5297 89,5865
-23,2175 126,7687 102,4416
-22,7236 134,5004 105,1293
-23,5175 160,9690 161,6432
1,7925 109,3075 47,4452
-15,7571 112,3787 87,0401
-5,3021 109,3580 46,7322
10,3569 111,3230 80,6896
-68,6517 150,3594 164,2971
16,3206 110,1028 79,0891
-8,7474 114,3075 24,9785
-1,4520 141,0180 103,9721
-14,7406 109,4966 57,4957
-0,4829 116,4627 84,5643
-5,0625 109,3075 37,4618
-8,7474 114,3075 24,9785
-28,7459 138,5551 108,4291
-8,6535 109,3079 34,1266
1,6051 109,3075 43,5540
-11,4382 109,3621 38,8286
-8,7474 114,3075 24,9785
-2,4367 109,3075 33,8340
-3,5540 109,3075 36,4042
-8,7474 114,3075 24,9785
19,2658 109,6177 78,2167
-4,4422 109,3422 45,4163
20,6289 114,8479 80,1609
-10,7441 109,3409 36,4291
-17,6176 109,3698 66,8539
-7,7650 109,3246 38,0090
-16,6366 109,4187 40,5613
-7,8956 109,3075 34,7125
-8,2351 109,3774 45,7104
-13,6135 128,7799 100,5062
-20,5129 109,2996 58,6358
17,1661 114,2317 80,5629
-9,7776 109,4568 56,1355
3,2863 109,3075 44,6343
3,0879 112,7833 82,5356
74,1472 204,2048 176,2759
-12,2272 109,3520 36,1250
-10,9987 110,1145 84,4055
7,0953 160,5031 152,7322
-11,8995 109,4117 46,0379
-0,9094 109,3168 46,3173
0,5479 109,3459 52,9600
-8,7474 114,3075 24,9785
4,7767 111,3529 81,6935
-8,8729 109,3095 34,0699
68,9232 194,6647 165,9350
14,0108 121,5886 83,8536
-8,7474 114,3075 24,9785
-8,4440 109,3579 42,3287
29,3750 135,0694 93,7707
-8,7474 114,3075 24,9785
-5,5337 109,4483 60,7152
8,7927 128,5794 95,5184
0,1499 124,2208 89,1272
-2,5648 109,3075 37,8340
-21,4393 109,3062 47,0632
-14,3667 129,0429 100,8117
-6,5828 111,7589 83,8678
5,0354 134,1841 98,2423
-5,4890 109,3075 34,1904
1,5774 109,3075 40,6331
-6,0939 125,3651 97,1677
